139.051422 -135.293304 541.000000
143.073547 -135.543381 542.000000
146.838654 -135.543381 542.000000
150.603729 -135.543381 542.000000
154.653656 -135.793472 543.000000
158.133911 -135.543381 542.000000
161.899017 -135.543381 542.000000
166.275436 -136.043549 544.000000
169.429199 -135.543381 542.000000
173.194305 -135.543381 542.000000
177.938858 -136.293640 545.000000
181.391373 -136.043549 544.000000
185.170364 -136.043549 544.000000
188.949326 -136.043549 544.000000
193.436890 -136.543701 546.000000
196.868530 -136.293640 545.000000
199.918121 -135.793472 543.000000
204.065292 -136.043549 544.000000
208.226334 -136.293640 545.000000
212.012283 -136.293640 545.000000
215.402222 -136.043549 544.000000
219.584122 -136.293640 545.000000
223.779938 -136.543701 546.000000
227.155991 -136.293640 545.000000
231.365677 -136.543701 546.000000
235.589249 -136.793793 547.000000
239.389084 -136.793793 547.000000
243.633499 -137.043869 548.000000
247.440262 -137.043869 548.000000
251.247055 -137.043869 548.000000
255.053802 -137.043869 548.000000
259.332977 -137.293961 549.000000
264.105347 -137.794098 551.000000
269.391724 -138.544357 554.000000
273.240204 -138.544357 554.000000
277.588806 -138.794434 555.000000
280.429993 -138.294266 553.000000
283.757446 -138.044189 552.000000
289.154999 -138.794434 555.000000
293.010406 -138.794434 555.000000
297.400665 -139.044510 556.000000
301.263062 -139.044510 556.000000
-245.161774 -133.396866 519.000000
-241.556427 -133.396866 519.000000
-237.951111 -133.396866 519.000000
-234.345795 -133.396866 519.000000
-230.740479 -133.396866 519.000000
-227.135162 -133.396866 519.000000
-223.529816 -133.396866 519.000000
-219.924515 -133.396866 519.000000
-216.319199 -133.396866 519.000000
-212.713867 -133.396866 519.000000
-209.511459 -133.653900 520.000000
-205.899200 -133.653900 520.000000
-202.675934 -133.910919 521.000000
-199.056732 -133.910919 521.000000
-195.437515 -133.910919 521.000000
-191.818314 -133.910919 521.000000
-188.199081 -133.910919 521.000000
-184.579865 -133.910919 521.000000
-181.307999 -134.167938 522.000000
-177.681824 -134.167938 522.000000
-173.722244 -133.910919 521.000000
-170.429504 -134.167938 522.000000
-166.803360 -134.167938 522.000000
-163.177200 -134.167938 522.000000
-159.551025 -134.167938 522.000000
-155.924881 -134.167938 522.000000
-152.298706 -134.167938 522.000000
-148.672546 -134.167938 522.000000
-144.768524 -133.910919 521.000000
-141.420242 -134.167938 522.000000
-138.058044 -134.424973 523.000000
-133.910889 -133.910919 521.000000
-130.541748 -134.167938 522.000000
-126.915596 -134.167938 522.000000
-123.525627 -134.424973 523.000000
-119.663269 -134.167938 522.000000
-116.037109 -134.167938 522.000000
-112.410957 -134.167938 522.000000
-108.784798 -134.167938 522.000000
-105.158638 -134.167938 522.000000
-101.726974 -134.424973 523.000000
-97.906311 -134.167938 522.000000
-94.099541 -133.910919 521.000000
-90.653999 -134.167938 522.000000
-87.194565 -134.424973 523.000000
-83.401665 -134.167938 522.000000
-79.622688 -133.910919 521.000000
-76.149353 -134.167938 522.000000
-72.523201 -134.167938 522.000000
-68.897041 -134.167938 522.000000
-65.145828 -133.910919 521.000000
-61.526619 -133.910919 521.000000
-58.018555 -134.167938 522.000000
-54.288200 -133.910919 521.000000
-50.668987 -133.910919 521.000000
-47.140068 -134.167938 522.000000
-43.347191 -133.653900 520.000000
-39.734928 -133.653900 520.000000
-36.122665 -133.653900 520.000000
-32.510403 -133.653900 520.000000
-28.842550 -133.396866 519.000000
-25.237232 -133.396866 519.000000
-21.631918 -133.396866 519.000000
-18.026600 -133.396866 519.000000
-14.449070 -133.653900 520.000000
-10.857630 -133.910919 521.000000
-7.224526 -133.653900 520.000000
-3.605317 -133.396866 519.000000
0.000000 -133.653900 520.000000
3.612280 -133.653900 520.000000
7.224526 -133.653900 520.000000
10.815967 -133.396866 519.000000
14.421300 -133.396866 519.000000
18.061333 -133.653900 520.000000
21.715292 -133.910919 521.000000
25.334486 -133.910919 521.000000
28.898140 -133.653900 520.000000
32.510422 -133.653900 520.000000
36.053200 -133.396866 519.000000
39.658535 -133.396866 519.000000
43.347191 -133.653900 520.000000
46.959473 -133.653900 520.000000
50.669003 -133.910919 521.000000
54.288200 -133.910919 521.000000
57.907429 -133.910919 521.000000
61.526619 -133.910919 521.000000
65.145844 -133.910919 521.000000
68.633087 -133.653900 520.000000
72.384262 -133.910919 521.000000
75.857613 -133.653900 520.000000
79.469856 -133.653900 520.000000
83.401688 -134.167938 522.000000
87.194580 -134.424973 523.000000
92.911667 -137.509293 535.000000
96.808762 -137.766312 536.000000
100.532158 -137.766312 536.000000
104.255577 -137.766312 536.000000
107.979004 -137.766312 536.000000
111.702400 -137.766312 536.000000
115.425827 -137.766312 536.000000
119.371513 -138.023346 537.000000
123.101883 -138.023346 537.000000
126.596069 -137.766312 536.000000
130.562592 -138.023346 537.000000
134.793121 -138.537399 539.000000
138.537369 -138.537399 539.000000
142.017654 -138.280365 538.000000
145.484055 -138.023346 537.000000
149.770126 -138.537399 539.000000
153.514389 -138.537399 539.000000
156.966873 -138.280365 538.000000
160.405487 -138.023346 537.000000
164.441498 -138.280365 538.000000
168.178802 -138.280365 538.000000
171.596573 -138.023346 537.000000
175.326904 -138.023346 537.000000
179.724167 -138.537399 539.000000
183.808807 -138.794418 540.000000
187.907333 -139.051453 541.000000
192.374054 -139.565506 543.000000
195.784836 -139.308472 542.000000
199.549957 -139.308472 542.000000
203.315063 -139.308472 542.000000
206.698059 -139.051453 541.000000
210.456223 -139.051453 541.000000
214.610306 -139.308472 542.000000
218.778320 -139.565506 543.000000
222.550369 -139.565506 543.000000
225.905594 -139.308472 542.000000
229.670700 -139.308472 542.000000
233.435776 -139.308472 542.000000
237.638519 -139.565506 543.000000
241.410568 -139.565506 543.000000
245.182602 -139.565506 543.000000
249.871613 -140.079559 545.000000
254.122955 -140.336594 546.000000
257.443451 -140.079559 545.000000
262.667358 -140.850647 548.000000
266.474121 -140.850647 548.000000
270.280914 -140.850647 548.000000
274.087677 -140.850647 548.000000
277.894470 -140.850647 548.000000
281.701233 -140.850647 548.000000
289.154999 -142.649826 555.000000
292.482483 -142.392792 554.000000
294.191315 -141.364700 550.000000
296.928314 -140.850647 548.000000
-246.106506 -137.530136 521.000000
-242.487289 -137.530136 521.000000
-238.868073 -137.530136 521.000000
-235.700394 -137.794098 522.000000
-231.629654 -137.530136 521.000000
-227.572800 -137.266159 520.000000
-223.960526 -137.266159 520.000000
-220.348267 -137.266159 520.000000
-216.735992 -137.266159 520.000000
-213.533569 -137.530136 521.000000
-210.317276 -137.794098 522.000000
-206.691116 -137.794098 522.000000
-203.064957 -137.794098 522.000000
-199.438797 -137.794098 522.000000
-196.187729 -138.058075 523.000000
-192.554657 -138.058075 523.000000
-188.921539 -138.058075 523.000000
-185.288437 -138.058075 523.000000
-181.655334 -138.058075 523.000000
-178.022202 -138.058075 523.000000
-174.389130 -138.058075 523.000000
-170.755997 -138.058075 523.000000
-167.122910 -138.058075 523.000000
-163.489792 -138.058075 523.000000
-159.856674 -138.058075 523.000000
-156.223587 -138.058075 523.000000
-152.590469 -138.058075 523.000000
-148.957367 -138.058075 523.000000
-145.324265 -138.058075 523.000000
-142.233002 -138.586029 525.000000
-138.585983 -138.586029 525.000000
-134.681961 -138.322052 524.000000
-130.791840 -138.058075 523.000000
-127.401863 -138.322052 524.000000
-123.761818 -138.322052 524.000000
-120.121742 -138.322052 524.000000
-116.481697 -138.322052 524.000000
-112.841644 -138.322052 524.000000
-109.201599 -138.322052 524.000000
-105.561554 -138.322052 524.000000
-101.921478 -138.322052 524.000000
-98.281433 -138.322052 524.000000
-94.821999 -138.586029 525.000000
-91.174995 -138.586029 525.000000
-87.528000 -138.586029 525.000000
-83.880989 -138.586029 525.000000
-80.081169 -138.322052 524.000000
-76.441109 -138.322052 524.000000
-72.801064 -138.322052 524.000000
-69.161018 -138.322052 524.000000
-65.520950 -138.322052 524.000000
-61.762806 -138.058075 523.000000
-58.129700 -138.058075 523.000000
-54.600800 -138.322052 524.000000
-50.863499 -138.058075 523.000000
-47.230373 -138.058075 523.000000
-43.597275 -138.058075 523.000000
-39.964169 -138.058075 523.000000
-36.331066 -138.058075 523.000000
-32.697964 -138.058075 523.000000
-29.064842 -138.058075 523.000000
-25.383112 -137.794098 522.000000
-21.798637 -138.058075 523.000000
-18.165533 -138.058075 523.000000
-14.532430 -138.058075 523.000000
-10.920149 -138.322052 524.000000
-7.266206 -138.058075 523.000000
-3.633103 -138.058075 523.000000
0.000000 -138.058075 523.000000
3.633121 -138.058075 523.000000
7.266206 -138.058075 523.000000
10.920167 -138.322052 524.000000
14.588021 -138.586029 525.000000
18.235001 -138.586029 525.000000
21.798653 -138.058075 523.000000
25.431740 -138.058075 523.000000
29.064859 -138.058075 523.000000
32.823021 -138.586029 525.000000
36.400532 -138.322052 524.000000
40.117012 -138.586029 525.000000
43.763992 -138.586029 525.000000
47.320698 -138.322052 524.000000
50.863514 -138.058075 523.000000
54.704998 -138.586029 525.000000
58.240868 -138.322052 524.000000
61.880901 -138.322052 524.000000
65.520966 -138.322052 524.000000
69.425011 -138.849991 526.000000
73.078934 -138.849991 526.000000
76.732895 -138.849991 526.000000
80.233994 -138.586029 525.000000
84.200554 -139.113968 527.000000
88.361618 -139.905884 530.000000
92.216995 -140.169861 531.000000
96.086304 -140.433823 532.000000
99.594353 -140.169861 531.000000
103.088539 -139.905884 530.000000
106.971733 -140.169861 531.000000
111.077194 -140.697800 533.000000
114.779785 -140.697800 533.000000
118.482338 -140.697800 533.000000
122.184929 -140.697800 533.000000
126.123703 -140.961792 534.000000
129.590057 -140.697800 533.000000
133.042572 -140.433823 532.000000
136.995193 -140.697800 533.000000
140.697800 -140.697800 533.000000
144.129456 -140.433823 532.000000
148.380798 -140.961792 534.000000
152.375153 -141.225754 535.000000
155.799820 -140.961792 534.000000
159.808060 -141.225754 535.000000
163.524551 -141.225754 535.000000
167.553604 -141.489731 536.000000
170.957474 -141.225754 535.000000
174.347427 -140.961792 534.000000
178.723846 -141.489731 536.000000
182.447281 -141.489731 536.000000
186.170670 -141.489731 536.000000
189.894089 -141.489731 536.000000
193.978714 -141.753708 537.000000
198.077255 -142.017685 538.000000
201.814575 -142.017685 538.000000
205.169800 -141.753708 537.000000
209.289185 -142.017685 538.000000
213.422424 -142.281647 539.000000
217.166702 -142.281647 539.000000
220.501099 -142.017685 538.000000
225.071991 -142.545624 540.000000
228.823212 -142.545624 540.000000
232.574402 -142.545624 540.000000
236.325592 -142.545624 540.000000
240.521408 -142.809601 541.000000
244.731064 -143.073563 542.000000
248.496170 -143.073563 542.000000
252.261246 -143.073563 542.000000
256.026337 -143.073563 542.000000
261.229401 -143.865479 545.000000
265.015320 -143.865479 545.000000
267.814850 -143.337540 543.000000
272.087036 -143.601517 544.000000
275.866028 -143.601517 544.000000
279.645020 -143.601517 544.000000
283.423981 -143.601517 544.000000
287.203003 -143.601517 544.000000
290.981964 -143.601517 544.000000
294.760956 -143.601517 544.000000
-244.689392 -140.336578 518.000000
-241.091003 -140.336578 518.000000
-237.034149 -140.065659 517.000000
-232.991196 -139.794739 516.000000
-229.851303 -140.065659 517.000000
-226.697525 -140.336578 518.000000
-223.099136 -140.336578 518.000000
-219.500778 -140.336578 518.000000
-216.319199 -140.607498 519.000000
-212.304001 -140.336578 518.000000
-209.108566 -140.607498 519.000000
-205.503220 -140.607498 519.000000
-201.897903 -140.607498 519.000000
-198.292603 -140.607498 519.000000
-194.687271 -140.607498 519.000000
-191.450134 -140.878418 520.000000
-188.199081 -141.149338 521.000000
-184.579865 -141.149338 521.000000
-180.613327 -140.878418 520.000000
-176.660660 -140.607498 519.000000
-173.388794 -140.878418 520.000000
-170.103027 -141.149338 521.000000
-166.164261 -140.878418 520.000000
-162.239395 -140.607498 519.000000
-158.634064 -140.607498 519.000000
-155.327469 -140.878418 520.000000
-152.006958 -141.149338 521.000000
-148.387741 -141.149338 521.000000
-145.046402 -141.420258 522.000000
-141.691162 -141.691177 523.000000
-137.794067 -141.420258 522.000000
-134.167908 -141.420258 522.000000
-130.541748 -141.420258 522.000000
-126.672462 -141.149338 521.000000
-123.289444 -141.420258 522.000000
-119.204788 -140.878418 520.000000
-115.814819 -141.149338 521.000000
-112.410957 -141.420258 522.000000
-108.784798 -141.420258 522.000000
-105.158638 -141.420258 522.000000
-101.532471 -141.420258 522.000000
-97.906311 -141.420258 522.000000
-94.099541 -141.149338 521.000000
-90.480331 -141.149338 521.000000
-86.861122 -141.149338 521.000000
-83.401665 -141.420258 522.000000
-79.775513 -141.420258 522.000000
-76.149353 -141.420258 522.000000
-72.523201 -141.420258 522.000000
-68.897041 -141.420258 522.000000
-65.145828 -141.149338 521.000000
-61.526619 -141.149338 521.000000
-57.907410 -141.149338 521.000000
-54.288200 -141.149338 521.000000
-50.571735 -140.878418 520.000000
-47.049763 -141.149338 521.000000
-43.513912 -141.420258 522.000000
-39.887756 -141.420258 522.000000
-36.261600 -141.420258 522.000000
-32.697964 -141.691177 523.000000
-29.064842 -141.691177 523.000000
-25.334486 -141.149338 521.000000
-21.798637 -141.691177 523.000000
-18.165533 -141.691177 523.000000
-14.532430 -141.691177 523.000000
-10.899310 -141.691177 523.000000
-7.266206 -141.691177 523.000000
-3.626157 -141.420258 522.000000
0.000000 -141.420258 522.000000
3.633121 -141.691177 523.000000
7.266206 -141.691177 523.000000
10.878487 -141.420258 522.000000
14.476873 -141.149338 521.000000
18.165533 -141.691177 523.000000
21.798653 -141.691177 523.000000
25.480366 -141.962097 524.000000
29.120434 -141.962097 524.000000
32.760502 -141.962097 524.000000
36.470001 -142.233017 525.000000
40.193428 -142.503937 526.000000
43.763992 -142.233017 525.000000
47.411007 -142.233017 525.000000
51.155273 -142.503937 526.000000
54.809200 -142.503937 526.000000
58.352013 -142.233017 525.000000
61.998989 -142.233017 525.000000
65.646004 -142.233017 525.000000
69.425011 -142.503937 526.000000
73.495735 -143.316696 529.000000
77.024651 -143.045776 528.000000
80.539642 -142.774857 527.000000
84.200554 -142.774857 527.000000
87.861458 -142.774857 527.000000
91.348663 -142.503937 526.000000
95.183235 -142.774857 527.000000
98.844109 -142.774857 527.000000
102.699532 -143.045776 528.000000
106.367378 -143.045776 528.000000
110.035194 -143.045776 528.000000
113.703049 -143.045776 528.000000
117.593163 -143.316696 529.000000
121.267960 -143.316696 529.000000
124.942772 -143.316696 529.000000
128.617538 -143.316696 529.000000
132.042252 -143.045776 528.000000
135.967102 -143.316696 529.000000
139.905869 -143.587616 530.000000
143.587616 -143.587616 530.000000
147.269333 -143.587616 530.000000
151.235886 -143.858536 531.000000
154.924561 -143.858536 531.000000
158.015839 -143.316696 529.000000
161.690628 -143.316696 529.000000
165.365402 -143.316696 529.000000
169.359741 -143.587616 530.000000
173.041458 -143.587616 530.000000
177.390091 -144.129456 532.000000
181.426102 -144.400375 533.000000
185.475998 -144.671295 534.000000
188.831253 -144.400375 533.000000
192.172577 -144.129456 532.000000
195.500046 -143.858536 531.000000
200.314102 -144.671295 534.000000
204.023590 -144.671295 534.000000
206.955109 -144.129456 532.000000
211.046661 -144.400375 533.000000
215.152176 -144.671295 534.000000
218.861694 -144.671295 534.000000
222.571198 -144.671295 534.000000
227.128220 -145.213135 536.000000
230.420929 -144.942230 535.000000
233.699768 -144.671295 534.000000
238.298477 -145.213135 536.000000
242.473389 -145.484055 537.000000
247.120728 -146.025894 539.000000
249.934113 -145.484055 537.000000
253.664474 -145.484055 537.000000
258.353485 -146.025894 539.000000
263.070251 -146.567734 541.000000
266.828430 -146.567734 541.000000
270.586548 -146.567734 541.000000
274.344696 -146.567734 541.000000
279.130981 -147.109573 543.000000
282.381989 -146.838654 542.000000
286.147095 -146.838654 542.000000
289.377258 -146.567734 541.000000
293.135468 -146.567734 541.000000
-243.272263 -143.101349 515.000000
-238.763870 -142.545609 513.000000
-235.200241 -142.545609 513.000000
-232.088135 -142.823486 514.000000
-228.962128 -143.101349 515.000000
-225.384598 -143.101349 515.000000
-221.807068 -143.101349 515.000000
-217.805771 -142.823486 514.000000
-214.235199 -142.823486 514.000000
-211.074448 -143.101349 515.000000
-207.899841 -143.379211 516.000000
-204.315353 -143.379211 516.000000
-200.341858 -143.101349 515.000000
-197.146393 -143.379211 516.000000
-193.937027 -143.657089 517.000000
-189.977448 -143.379211 516.000000
-186.392960 -143.379211 516.000000
-182.454193 -143.101349 515.000000
-179.223999 -143.379211 516.000000
-175.639511 -143.379211 516.000000
-172.055038 -143.379211 516.000000
-168.797043 -143.657089 517.000000
-164.886063 -143.379211 516.000000
-161.301590 -143.379211 516.000000
-158.022751 -143.657089 517.000000
-154.431351 -143.657089 517.000000
-151.131668 -143.934952 518.000000
-147.533310 -143.934952 518.000000
-144.212799 -144.212814 519.000000
-140.607483 -144.212814 519.000000
-137.002151 -144.212814 519.000000
-133.396835 -144.212814 519.000000
-129.791504 -144.212814 519.000000
-125.943062 -143.934952 518.000000
-122.108505 -143.657089 517.000000
-118.517067 -143.657089 517.000000
-114.925644 -143.657089 517.000000
-111.334221 -143.657089 517.000000
-107.742798 -143.657089 517.000000
-104.151375 -143.657089 517.000000
-100.948944 -144.212814 519.000000
-97.156067 -143.934952 518.000000
-93.557701 -143.934952 518.000000
-90.132996 -144.212814 519.000000
-86.527687 -144.212814 519.000000
-82.922348 -144.212814 519.000000
-79.317032 -144.212814 519.000000
-75.711708 -144.212814 519.000000
-72.106400 -144.212814 519.000000
-68.501083 -144.212814 519.000000
-64.770706 -143.934952 518.000000
-61.054245 -143.657089 517.000000
-57.573967 -143.934952 518.000000
-53.975597 -143.934952 518.000000
-50.474483 -144.212814 519.000000
-46.869148 -144.212814 519.000000
-43.180473 -143.934952 518.000000
-39.582100 -143.934952 518.000000
-36.053200 -144.212814 519.000000
-32.322842 -143.657089 517.000000
-28.786976 -143.934952 518.000000
-25.237232 -144.212814 519.000000
-21.590237 -143.934952 518.000000
-17.957132 -143.657089 517.000000
-14.393496 -143.934952 518.000000
-10.795110 -143.934952 518.000000
-7.196740 -143.934952 518.000000
-3.605317 -144.212814 519.000000
0.000000 -144.212814 519.000000
3.605334 -144.212814 519.000000
7.210633 -144.212814 519.000000
10.815967 -144.212814 519.000000
14.421300 -144.212814 519.000000
18.061333 -144.490692 520.000000
21.673613 -144.490692 520.000000
25.285860 -144.490692 520.000000
28.953714 -144.768555 521.000000
32.635460 -145.046417 522.000000
36.261600 -145.046417 522.000000
39.887772 -145.046417 522.000000
43.347191 -144.490692 520.000000
47.140087 -145.046417 522.000000
50.766258 -145.046417 522.000000
54.288200 -144.768555 521.000000
57.907429 -144.768555 521.000000
61.762806 -145.324280 523.000000
65.395927 -145.324280 523.000000
68.897057 -145.046417 522.000000
72.523201 -145.046417 522.000000
76.295250 -145.324280 523.000000
79.928337 -145.324280 523.000000
83.721230 -145.602142 524.000000
87.361305 -145.602142 524.000000
90.827667 -145.324280 523.000000
94.460785 -145.324280 523.000000
98.093864 -145.324280 523.000000
101.726997 -145.324280 523.000000
105.763016 -145.880005 525.000000
109.618401 -146.157883 526.000000
112.841660 -145.602142 524.000000
116.703987 -145.880005 525.000000
120.580238 -146.157883 526.000000
124.234200 -146.157883 526.000000
128.131271 -146.435745 527.000000
131.292007 -145.880005 525.000000
134.938995 -145.880005 525.000000
139.113953 -146.435745 527.000000
142.774857 -146.435745 527.000000
146.157867 -146.157883 526.000000
150.096634 -146.435745 527.000000
153.757507 -146.435745 527.000000
157.418411 -146.435745 527.000000
160.773682 -146.157883 526.000000
164.427597 -146.157883 526.000000
168.081543 -146.157883 526.000000
172.061981 -146.435745 527.000000
176.389771 -146.991486 529.000000
180.404953 -147.269348 530.000000
184.086670 -147.269348 530.000000
187.768417 -147.269348 530.000000
191.088882 -146.991486 529.000000
195.131866 -147.269348 530.000000
198.813614 -147.269348 530.000000
202.495331 -147.269348 530.000000
206.177078 -147.269348 530.000000
209.858795 -147.269348 530.000000
213.137634 -146.991486 529.000000
216.812439 -146.991486 529.000000
221.320801 -147.547211 531.000000
225.433243 -147.825089 532.000000
229.559540 -148.102951 533.000000
232.386841 -147.547211 531.000000
236.520126 -147.825089 532.000000
240.667267 -148.102951 533.000000
244.369858 -148.102951 533.000000
248.537827 -148.380814 534.000000
253.192108 -148.936554 536.000000
255.956894 -148.380814 534.000000
260.152649 -148.658691 535.000000
263.869141 -148.658691 535.000000
268.085754 -148.936554 536.000000
272.316284 -149.214417 537.000000
275.532623 -148.936554 536.000000
280.298004 -149.492279 538.000000
285.619141 -150.325882 541.000000
289.377258 -150.325882 541.000000
293.677277 -150.603745 542.000000
-242.327530 -146.109238 513.000000
-238.298447 -145.824432 512.000000
-234.741745 -145.824432 512.000000
-231.185059 -145.824432 512.000000
-228.072952 -146.109238 513.000000
-224.071686 -145.824432 512.000000
-220.084290 -145.539627 511.000000
-216.110794 -145.254807 510.000000
-212.984802 -145.539627 511.000000
-209.844894 -145.824432 512.000000
-206.288223 -145.824432 512.000000
-202.731506 -145.824432 512.000000
-199.563843 -146.109238 513.000000
-196.000198 -146.109238 513.000000
-192.436539 -146.109238 513.000000
-188.872925 -146.109238 513.000000
-185.670486 -146.394058 514.000000
-181.745636 -146.109238 513.000000
-178.181992 -146.109238 513.000000
-174.618332 -146.109238 513.000000
-171.054733 -146.109238 513.000000
-167.491074 -146.109238 513.000000
-163.927444 -146.109238 513.000000
-160.363800 -146.109238 513.000000
-156.800140 -146.109238 513.000000
-153.236526 -146.109238 513.000000
-149.672867 -146.109238 513.000000
-146.109238 -146.109238 513.000000
-142.545593 -146.109238 513.000000
-139.523804 -146.678879 515.000000
-136.210220 -146.963699 516.000000
-131.854660 -146.109238 513.000000
-128.791199 -146.678879 515.000000
-124.727394 -146.109238 513.000000
-121.163765 -146.109238 513.000000
-117.600113 -146.109238 513.000000
-114.481056 -146.678879 515.000000
-110.903534 -146.678879 515.000000
-107.325996 -146.678879 515.000000
-103.748466 -146.678879 515.000000
-100.365425 -146.963699 516.000000
-96.405830 -146.394058 514.000000
-92.835243 -146.394058 514.000000
-89.264664 -146.394058 514.000000
-85.860802 -146.678879 515.000000
-82.443024 -146.963699 516.000000
-78.552902 -146.394058 514.000000
-74.982315 -146.394058 514.000000
-71.411736 -146.394058 514.000000
-67.841148 -146.394058 514.000000
-64.270546 -146.394058 514.000000
-60.699966 -146.394058 514.000000
-57.129383 -146.394058 514.000000
-53.662998 -146.678879 515.000000
-50.085468 -146.678879 515.000000
-46.598228 -146.963699 516.000000
-42.930389 -146.678879 515.000000
-39.276451 -146.394058 514.000000
-35.775333 -146.678879 515.000000
-32.197803 -146.678879 515.000000
-28.564684 -146.394058 514.000000
-24.994099 -146.394058 514.000000
-21.465195 -146.678879 515.000000
-17.852934 -146.394058 514.000000
-14.282350 -146.394058 514.000000
-10.711750 -146.394058 514.000000
-7.141167 -146.394058 514.000000
-3.577530 -146.678879 515.000000
0.000000 -146.394058 514.000000
3.584494 -146.963699 516.000000
7.155060 -146.678879 515.000000
10.753447 -146.963699 516.000000
14.337940 -146.963699 516.000000
17.957132 -147.248505 517.000000
21.548573 -147.248505 517.000000
25.139980 -147.248505 517.000000
28.786991 -147.533325 518.000000
32.322861 -147.248505 517.000000
35.914265 -147.248505 517.000000
39.505707 -147.248505 517.000000
43.097111 -147.248505 517.000000
46.688553 -147.248505 517.000000
50.377247 -147.533325 518.000000
54.079800 -147.818130 519.000000
57.685135 -147.818130 519.000000
61.172340 -147.533325 518.000000
64.895767 -147.818130 519.000000
68.501099 -147.818130 519.000000
72.106400 -147.818130 519.000000
75.857613 -148.102951 520.000000
79.317032 -147.818130 519.000000
83.082138 -148.102951 520.000000
86.527702 -147.818130 519.000000
89.785667 -147.248505 517.000000
93.557716 -147.533325 518.000000
97.343636 -147.818130 519.000000
100.948967 -147.818130 519.000000
105.360115 -148.957382 523.000000
108.576401 -148.387756 521.000000
112.195625 -148.387756 521.000000
115.814819 -148.387756 521.000000
119.434044 -148.387756 521.000000
123.289459 -148.672577 522.000000
126.915596 -148.672577 522.000000
130.541779 -148.672577 522.000000
134.167908 -148.672577 522.000000
137.794083 -148.672577 522.000000
140.878418 -148.102951 520.000000
145.046402 -148.672577 522.000000
148.387756 -148.387756 521.000000
152.298706 -148.672577 522.000000
156.223587 -148.957382 523.000000
159.856705 -148.957382 523.000000
163.177200 -148.672577 522.000000
167.122925 -148.957382 523.000000
170.755997 -148.957382 523.000000
174.722565 -149.242203 524.000000
178.362640 -149.242203 524.000000
182.349991 -149.527008 525.000000
185.997009 -149.527008 525.000000
189.643997 -149.527008 525.000000
193.291000 -149.527008 525.000000
197.688263 -150.096634 527.000000
201.349136 -150.096634 527.000000
205.010040 -150.096634 527.000000
208.670914 -150.096634 527.000000
211.928909 -149.811829 526.000000
215.992722 -150.096634 527.000000
219.653595 -150.096634 527.000000
223.314499 -150.096634 527.000000
226.975372 -150.096634 527.000000
231.073929 -150.381454 528.000000
235.186371 -150.666260 529.000000
238.409592 -150.381454 528.000000
242.994415 -150.951065 530.000000
247.141556 -151.235886 531.000000
251.302612 -151.520706 532.000000
254.998260 -151.520706 532.000000
258.207581 -151.235886 531.000000
262.389496 -151.520706 532.000000
267.085419 -152.090332 534.000000
271.809174 -152.659958 536.000000
273.990448 -151.805527 533.000000
279.255981 -152.659958 536.000000
282.979401 -152.659958 536.000000
285.098145 -151.805527 533.000000
-239.965652 -148.214096 508.000000
-235.971313 -147.922333 507.000000
-232.449356 -147.922333 507.000000
-228.927399 -147.922333 507.000000
-225.405441 -147.922333 507.000000
-222.321121 -148.214096 508.000000
-217.930817 -147.630569 506.000000
-214.839554 -147.922333 507.000000
-211.734390 -148.214096 508.000000
-207.795624 -147.922333 507.000000
-204.273682 -147.922333 507.000000
-201.147659 -148.214096 508.000000
-198.007782 -148.505844 509.000000
-194.471924 -148.505844 509.000000
-191.311172 -148.797607 510.000000
-187.768402 -148.797607 510.000000
-183.864349 -148.505844 509.000000
-180.328506 -148.505844 509.000000
-176.792664 -148.505844 509.000000
-173.256805 -148.505844 509.000000
-170.054398 -148.797607 510.000000
-166.511597 -148.797607 510.000000
-162.329712 -148.214096 508.000000
-159.425995 -148.797607 510.000000
-155.883179 -148.797607 510.000000
-152.340393 -148.797607 510.000000
-148.797592 -148.797607 510.000000
-145.254791 -148.797607 510.000000
-141.711990 -148.797607 510.000000
-138.169205 -148.797607 510.000000
-134.626389 -148.797607 510.000000
-131.083588 -148.797607 510.000000
-127.540794 -148.797607 510.000000
-124.241135 -149.089355 511.000000
-120.927574 -149.381134 512.000000
-117.141624 -149.089355 511.000000
-113.591888 -149.089355 511.000000
-109.826797 -148.797607 510.000000
-106.700798 -149.381134 512.000000
-102.741196 -148.797607 510.000000
-99.198387 -148.797607 510.000000
-96.030708 -149.381134 512.000000
-92.293411 -149.089355 511.000000
-88.743668 -149.089355 511.000000
-85.360641 -149.381134 512.000000
-81.644157 -149.089355 511.000000
-77.941589 -148.797607 510.000000
-74.398796 -148.797607 510.000000
-70.994934 -149.089355 511.000000
-67.445190 -149.089355 511.000000
-63.895428 -149.089355 511.000000
-60.345684 -149.089355 511.000000
-56.795944 -149.089355 511.000000
-53.141998 -148.797607 510.000000
-49.599205 -148.797607 510.000000
-46.056389 -148.797607 510.000000
-42.596951 -149.089355 511.000000
-38.970795 -148.797607 510.000000
-35.427998 -148.797607 510.000000
-31.947723 -149.089355 511.000000
-28.397963 -149.089355 511.000000
-24.848219 -149.089355 511.000000
-21.381836 -149.672897 513.000000
-17.783466 -149.381134 512.000000
-14.198990 -149.089355 511.000000
-10.649229 -149.089355 511.000000
-7.127273 -149.672897 513.000000
-3.556690 -149.381134 512.000000
0.000000 -149.381134 512.000000
3.563653 -149.672897 513.000000
7.127273 -149.672897 513.000000
10.690927 -149.672897 513.000000
14.282367 -149.964645 514.000000
17.852934 -149.964645 514.000000
21.423534 -149.964645 514.000000
25.042727 -150.256409 515.000000
28.564699 -149.964645 514.000000
32.260342 -150.548157 516.000000
35.705868 -149.964645 514.000000
39.276466 -149.964645 514.000000
42.847034 -149.964645 514.000000
46.417629 -149.964645 514.000000
50.085487 -150.256409 515.000000
53.662998 -150.256409 515.000000
57.351696 -150.548157 516.000000
60.936150 -150.548157 516.000000
64.520645 -150.548157 516.000000
67.973152 -150.256409 515.000000
71.689598 -150.548157 516.000000
75.274094 -150.548157 516.000000
79.011375 -150.839920 517.000000
82.762596 -151.131699 518.000000
86.027534 -150.548157 516.000000
89.612000 -150.548157 516.000000
93.196495 -150.548157 516.000000
96.968513 -150.839920 517.000000
100.754463 -151.131699 518.000000
104.352844 -151.131699 518.000000
107.951195 -151.131699 518.000000
111.549583 -151.131699 518.000000
114.925644 -150.839920 517.000000
118.975563 -151.423447 519.000000
122.344711 -151.131699 518.000000
126.186195 -151.423447 519.000000
129.791534 -151.423447 519.000000
133.139801 -151.131699 518.000000
136.738190 -151.131699 518.000000
140.336578 -151.131699 518.000000
143.934937 -151.131699 518.000000
147.818130 -151.423447 519.000000
151.423416 -151.423447 519.000000
155.327469 -151.715210 520.000000
158.939743 -151.715210 520.000000
162.239395 -151.423447 519.000000
165.525192 -151.131699 518.000000
169.450027 -151.423447 519.000000
173.722244 -152.006958 521.000000
177.341476 -152.006958 521.000000
180.960663 -152.006958 521.000000
184.579880 -152.006958 521.000000
188.560303 -152.298721 522.000000
192.554657 -152.590500 523.000000
195.812653 -152.298721 522.000000
199.056732 -152.006958 521.000000
202.675949 -152.006958 521.000000
206.295151 -152.006958 521.000000
210.317276 -152.298721 522.000000
214.353302 -152.590500 523.000000
218.403198 -152.882248 524.000000
222.043259 -152.882248 524.000000
225.683289 -152.882248 524.000000
229.761002 -153.174011 525.000000
234.297195 -153.757523 527.000000
237.958069 -153.757523 527.000000
242.077454 -154.049286 528.000000
246.676132 -154.632813 530.000000
249.885498 -154.341049 529.000000
254.039612 -154.632813 530.000000
257.721313 -154.632813 530.000000
261.403076 -154.632813 530.000000
265.084808 -154.632813 530.000000
269.273651 -154.924561 531.000000
273.476379 -155.216324 532.000000
276.651001 -154.924561 531.000000
281.395599 -155.508087 533.000000
284.028351 -154.924561 531.000000
288.258881 -155.216324 532.000000
-238.076172 -150.548157 504.000000
-234.575027 -150.548157 504.000000
-231.073914 -150.548157 504.000000
-227.572800 -150.548157 504.000000
-223.627090 -150.249451 503.000000
-220.570572 -150.548157 504.000000
-217.069427 -150.548157 504.000000
-213.568314 -150.548157 504.000000
-210.483994 -150.846878 505.000000
-206.566071 -150.548157 504.000000
-203.064972 -150.548157 504.000000
-199.959793 -150.846878 505.000000
-196.451736 -150.846878 505.000000
-192.943665 -150.846878 505.000000
-189.060471 -150.548157 504.000000
-185.927536 -150.846878 505.000000
-182.419464 -150.846878 505.000000
-179.265671 -151.145584 506.000000
-175.750656 -151.145584 506.000000
-172.235641 -151.145584 506.000000
-169.054077 -151.444275 507.000000
-164.879135 -150.846878 505.000000
-161.690598 -151.145584 506.000000
-158.488190 -151.444275 507.000000
-154.966217 -151.444275 507.000000
-151.444290 -151.444275 507.000000
-147.922318 -151.444275 507.000000
-144.400360 -151.444275 507.000000
-141.156265 -151.742996 508.000000
-138.169205 -152.340408 510.000000
-134.098450 -151.742996 508.000000
-130.312515 -151.444275 507.000000
-126.790558 -151.444275 507.000000
-123.268600 -151.444275 507.000000
-119.746643 -151.444275 507.000000
-116.224670 -151.444275 507.000000
-112.702713 -151.444275 507.000000
-109.180756 -151.444275 507.000000
-105.658798 -151.444275 507.000000
-102.136841 -151.444275 507.000000
-98.614868 -151.444275 507.000000
-94.530235 -150.548157 504.000000
-91.390343 -151.145584 506.000000
-88.048996 -151.444275 507.000000
-84.527039 -151.444275 507.000000
-81.005066 -151.444275 507.000000
-77.483109 -151.444275 507.000000
-74.107033 -151.742996 508.000000
-70.578133 -151.742996 508.000000
-67.049232 -151.742996 508.000000
-63.520309 -151.742996 508.000000
-59.991405 -151.742996 508.000000
-56.351357 -151.444275 507.000000
-52.829399 -151.444275 507.000000
-49.307442 -151.444275 507.000000
-46.056389 -152.340408 510.000000
-42.263512 -151.444275 507.000000
-38.741554 -151.444275 507.000000
-35.289066 -151.742996 508.000000
-31.697643 -151.444275 507.000000
-28.175669 -151.444275 507.000000
-24.653713 -151.444275 507.000000
-21.131756 -151.444275 507.000000
-17.609800 -151.444275 507.000000
-14.115629 -151.742996 508.000000
-10.607550 -152.041702 509.000000
-7.043913 -151.444275 507.000000
-3.542796 -152.340408 510.000000
0.000000 -152.041702 509.000000
3.542814 -152.340408 510.000000
7.085593 -152.340408 510.000000
10.565886 -151.444275 507.000000
14.115646 -151.742996 508.000000
17.679266 -152.041702 509.000000
21.256813 -152.340408 510.000000
24.799593 -152.340408 510.000000
28.286833 -152.041702 509.000000
31.885221 -152.340408 510.000000
35.427998 -152.340408 510.000000
38.970814 -152.340408 510.000000
42.513592 -152.340408 510.000000
46.056408 -152.340408 510.000000
49.599220 -152.340408 510.000000
53.141998 -152.340408 510.000000
56.684811 -152.340408 510.000000
60.345684 -152.639114 511.000000
63.895447 -152.639114 511.000000
67.313217 -152.340408 510.000000
71.133865 -152.937820 512.000000
74.836449 -153.236526 513.000000
78.552902 -153.535217 514.000000
81.803955 -152.937820 512.000000
85.360657 -152.937820 512.000000
89.090996 -153.236526 513.000000
92.835258 -153.535217 514.000000
96.218269 -153.236526 513.000000
99.587418 -152.937820 512.000000
103.345581 -153.236526 513.000000
106.909195 -153.236526 513.000000
110.688194 -153.535217 514.000000
114.258766 -153.535217 514.000000
118.058609 -153.833939 515.000000
121.399971 -153.535217 514.000000
124.970528 -153.535217 514.000000
128.541122 -153.535217 514.000000
132.111694 -153.535217 514.000000
135.946274 -153.833939 515.000000
139.252899 -153.535217 514.000000
143.101334 -153.833939 515.000000
146.963684 -154.132645 516.000000
150.548157 -154.132645 516.000000
154.132645 -154.132645 516.000000
157.717148 -154.132645 516.000000
161.301590 -154.132645 516.000000
164.886078 -154.132645 516.000000
168.470551 -154.132645 516.000000
172.388489 -154.431351 517.000000
176.320297 -154.730057 518.000000
179.571335 -154.431351 517.000000
183.871323 -155.028763 519.000000
187.115402 -154.730057 518.000000
190.345612 -154.431351 517.000000
193.561951 -154.132645 516.000000
197.528458 -154.431351 517.000000
201.508926 -154.730057 518.000000
205.503220 -155.028763 519.000000
209.511459 -155.327469 520.000000
212.713898 -155.028763 519.000000
216.735992 -155.327469 520.000000
220.772018 -155.626175 521.000000
224.391220 -155.626175 521.000000
228.448090 -155.924881 522.000000
232.518829 -156.223587 523.000000
237.506531 -157.119705 526.000000
240.243530 -156.522293 524.000000
242.952713 -155.924881 522.000000
247.051254 -156.223587 523.000000
251.163696 -156.522293 524.000000
255.776260 -157.119705 526.000000
259.430206 -157.119705 526.000000
263.584320 -157.418411 527.000000
267.245209 -157.418411 527.000000
270.392090 -157.119705 526.000000
275.087982 -157.717133 528.000000
280.339691 -158.613251 531.000000
280.819000 -156.821014 525.000000
286.633362 -158.015823 529.000000
-237.131409 -153.437988 502.000000
-233.178757 -153.132339 501.000000
-229.698471 -153.132339 501.000000
-226.669724 -153.437988 502.000000
-222.737930 -153.132339 501.000000
-219.257645 -153.132339 501.000000
-215.777359 -153.132339 501.000000
-211.873337 -152.826691 500.000000
-208.816803 -153.132339 501.000000
-205.336502 -153.132339 501.000000
-201.856247 -153.132339 501.000000
-198.375946 -153.132339 501.000000
-194.895660 -153.132339 501.000000
-191.415390 -153.132339 501.000000
-188.310226 -153.437988 502.000000
-184.823013 -153.437988 502.000000
-181.335770 -153.437988 502.000000
-177.494263 -153.132339 501.000000
-174.361328 -153.437988 502.000000
-170.874084 -153.437988 502.000000
-167.720322 -153.743652 503.000000
-163.573151 -153.132339 501.000000
-160.412415 -153.437988 502.000000
-157.550400 -154.049301 504.000000
-154.049271 -154.049301 504.000000
-150.548172 -154.049301 504.000000
-147.047028 -154.049301 504.000000
-143.261108 -153.743652 503.000000
-139.766937 -153.743652 503.000000
-136.272766 -153.743652 503.000000
-132.778580 -153.743652 503.000000
-129.541428 -154.049301 504.000000
-125.540154 -153.437988 502.000000
-122.052933 -153.437988 502.000000
-119.038086 -154.049301 504.000000
-115.536949 -154.049301 504.000000
-112.035835 -154.049301 504.000000
-108.750061 -154.354965 505.000000
-105.033600 -154.049301 504.000000
-101.532486 -154.049301 504.000000
-98.031349 -154.049301 504.000000
-94.342667 -153.743652 503.000000
-91.029114 -154.049301 504.000000
-87.528000 -154.049301 504.000000
-84.026886 -154.049301 504.000000
-80.525749 -154.049301 504.000000
-77.024635 -154.049301 504.000000
-73.523514 -154.049301 504.000000
-70.022400 -154.049301 504.000000
-66.521278 -154.049301 504.000000
-63.020145 -154.049301 504.000000
-59.519035 -154.049301 504.000000
-56.017918 -154.049301 504.000000
-52.516800 -154.049301 504.000000
-49.210186 -154.660614 506.000000
-45.514545 -154.049301 504.000000
-42.013435 -154.049301 504.000000
-38.512318 -154.049301 504.000000
-35.011200 -154.049301 504.000000
-31.510082 -154.049301 504.000000
-28.008949 -154.049301 504.000000
-24.556459 -154.354965 505.000000
-21.048395 -154.354965 505.000000
-17.505600 -154.049301 504.000000
-14.004483 -154.049301 504.000000
-10.503350 -154.049301 504.000000
-7.002233 -154.049301 504.000000
-3.501117 -154.049301 504.000000
0.000000 -154.049301 504.000000
3.501133 -154.049301 504.000000
7.030020 -154.660614 506.000000
10.545047 -154.660614 506.000000
14.032287 -154.354965 505.000000
17.575066 -154.660614 506.000000
21.090094 -154.660614 506.000000
24.653713 -154.966263 507.000000
28.175686 -154.966263 507.000000
31.697660 -154.966263 507.000000
35.219601 -154.966263 507.000000
38.741573 -154.966263 507.000000
42.430233 -155.577560 509.000000
45.875793 -155.271927 508.000000
49.307461 -154.966263 507.000000
52.829399 -154.966263 507.000000
56.351372 -154.966263 507.000000
59.991405 -155.271927 508.000000
63.645363 -155.577560 509.000000
67.181229 -155.577560 509.000000
70.855995 -155.883224 510.000000
74.107048 -155.271927 508.000000
77.483109 -154.966263 507.000000
81.164864 -155.271927 508.000000
85.027214 -155.883224 510.000000
88.570000 -155.883224 510.000000
92.112816 -155.883224 510.000000
95.468033 -155.577560 509.000000
98.809395 -155.271927 508.000000
102.741219 -155.883224 510.000000
106.492401 -156.188873 511.000000
109.826813 -155.883224 510.000000
113.591888 -156.188873 511.000000
116.912407 -155.883224 510.000000
120.691406 -156.188873 511.000000
124.484268 -156.494537 512.000000
127.790894 -156.188873 511.000000
131.597641 -156.494537 512.000000
135.418335 -156.800186 513.000000
138.440140 -156.188873 511.000000
141.989868 -156.188873 511.000000
146.109253 -156.800186 513.000000
149.381104 -156.494537 512.000000
152.937820 -156.494537 512.000000
156.800171 -156.800186 513.000000
160.051193 -156.494537 512.000000
163.927460 -156.800186 513.000000
167.491074 -156.800186 513.000000
171.388168 -157.105850 514.000000
174.958771 -157.105850 514.000000
178.876663 -157.411499 515.000000
182.454208 -157.411499 515.000000
186.031723 -157.411499 515.000000
189.241104 -157.105850 514.000000
193.186813 -157.411499 515.000000
196.764328 -157.411499 515.000000
200.341873 -157.411499 515.000000
204.315353 -157.717133 516.000000
208.705658 -158.328445 518.000000
212.304031 -158.328445 518.000000
215.902390 -158.328445 518.000000
219.924530 -158.634109 519.000000
223.529816 -158.634109 519.000000
227.135162 -158.634109 519.000000
230.740494 -158.634109 519.000000
234.797333 -158.939758 520.000000
239.326569 -159.551071 522.000000
242.021866 -158.939758 520.000000
245.634125 -158.939758 520.000000
250.205063 -159.551071 522.000000
254.317459 -159.856720 523.000000
257.950592 -159.856720 523.000000
261.083496 -159.551071 522.000000
265.216797 -159.856720 523.000000
270.392090 -160.773682 526.000000
275.609009 -161.690643 529.000000
274.532288 -158.939758 520.000000
278.679413 -159.245422 521.000000
284.466003 -160.468018 525.000000
-231.782471 -155.674820 498.000000
-228.323044 -155.674820 498.000000
-224.863602 -155.674820 498.000000
-221.404160 -155.674820 498.000000
-217.507080 -155.362228 497.000000
-214.054581 -155.362228 497.000000
-210.602081 -155.362228 497.000000
-207.149597 -155.362228 497.000000
-203.697083 -155.362228 497.000000
-200.647522 -155.674820 498.000000
-196.792114 -155.362228 497.000000
-193.728638 -155.674820 498.000000
-190.269196 -155.674820 498.000000
-187.184860 -155.987427 499.000000
-184.086670 -156.300018 500.000000
-179.890869 -155.674820 498.000000
-176.785706 -155.987427 499.000000
-173.666656 -156.300018 500.000000
-170.193314 -156.300018 500.000000
-166.386566 -155.987427 499.000000
-162.920151 -155.987427 499.000000
-159.453781 -155.987427 499.000000
-155.987396 -155.987427 499.000000
-153.132309 -156.612625 501.000000
-149.353333 -156.300018 500.000000
-145.588226 -155.987427 499.000000
-142.121841 -155.987427 499.000000
-138.933334 -156.300018 500.000000
-135.730927 -156.612625 501.000000
-132.250626 -156.612625 501.000000
-128.513321 -156.300018 500.000000
-124.789909 -155.987427 499.000000
-121.566666 -156.300018 500.000000
-118.093330 -156.300018 500.000000
-114.619987 -156.300018 500.000000
-111.813538 -157.237823 503.000000
-107.888680 -156.612625 501.000000
-104.408401 -156.612625 501.000000
-100.928123 -156.612625 501.000000
-97.253326 -156.300018 500.000000
-93.779991 -156.300018 500.000000
-90.487274 -156.612625 501.000000
-87.006996 -156.612625 501.000000
-83.526718 -156.612625 501.000000
-79.886658 -156.300018 500.000000
-76.413322 -156.300018 500.000000
-72.794113 -155.987427 499.000000
-69.466667 -156.300018 500.000000
-66.125320 -156.612625 501.000000
-62.645031 -156.612625 501.000000
-59.164753 -156.612625 501.000000
-55.684479 -156.612625 501.000000
-52.204201 -156.612625 501.000000
-48.626671 -156.300018 500.000000
-45.424240 -157.237823 503.000000
-41.763351 -156.612625 501.000000
-38.283077 -156.612625 501.000000
-34.802799 -156.612625 501.000000
-31.260004 -156.300018 500.000000
-27.786655 -156.300018 500.000000
-24.361952 -156.612625 501.000000
-20.881676 -156.612625 501.000000
-17.401400 -156.612625 501.000000
-13.921124 -156.612625 501.000000
-10.440829 -156.612625 501.000000
-6.960553 -156.612625 501.000000
-3.501117 -157.550415 504.000000
0.000000 -156.612625 501.000000
3.480293 -156.612625 501.000000
6.974446 -156.925217 502.000000
10.440846 -156.612625 501.000000
13.948927 -156.925217 502.000000
17.470867 -157.237823 503.000000
20.965054 -157.237823 503.000000
24.361952 -156.612625 501.000000
28.008966 -157.550415 504.000000
31.510099 -157.550415 504.000000
35.011200 -157.550415 504.000000
38.512333 -157.550415 504.000000
42.013435 -157.550415 504.000000
45.514565 -157.550415 504.000000
49.112953 -157.863022 505.000000
52.725201 -158.175629 506.000000
56.017933 -157.550415 504.000000
59.637123 -157.863022 505.000000
63.395287 -158.488220 507.000000
66.521301 -157.550415 504.000000
70.161331 -157.863022 505.000000
73.523529 -157.550415 504.000000
77.177460 -157.863022 505.000000
80.845306 -158.175629 506.000000
84.360336 -158.175629 506.000000
88.048996 -158.488220 507.000000
91.390358 -158.175629 506.000000
94.905357 -158.175629 506.000000
98.420372 -158.175629 506.000000
101.935402 -158.175629 506.000000
105.658798 -158.488220 507.000000
109.180771 -158.488220 507.000000
112.702713 -158.488220 507.000000
116.224686 -158.488220 507.000000
119.982849 -158.800827 508.000000
123.268600 -158.488220 507.000000
126.790573 -158.488220 507.000000
130.826569 -159.113419 509.000000
134.890381 -159.738617 511.000000
138.169220 -159.426025 510.000000
141.711990 -159.426025 510.000000
145.254822 -159.426025 510.000000
148.505829 -159.113419 509.000000
152.340393 -159.426025 510.000000
155.883209 -159.426025 510.000000
159.425995 -159.426025 510.000000
162.968811 -159.426025 510.000000
166.511597 -159.426025 510.000000
170.387833 -159.738617 511.000000
173.937607 -159.738617 511.000000
177.834671 -160.051224 512.000000
181.037079 -159.738617 511.000000
184.586823 -159.738617 511.000000
187.768402 -159.426025 510.000000
191.311218 -159.426025 510.000000
195.618134 -160.051224 512.000000
198.785812 -159.738617 511.000000
202.731506 -160.051224 512.000000
206.288223 -160.051224 512.000000
210.254776 -160.363815 513.000000
214.235199 -160.676422 514.000000
218.229553 -160.989029 515.000000
221.807068 -160.989029 515.000000
225.384598 -160.989029 515.000000
229.406738 -161.301620 516.000000
232.991196 -161.301620 516.000000
236.575684 -161.301620 516.000000
241.091003 -161.926819 518.000000
243.272263 -160.989029 515.000000
246.849808 -160.989029 515.000000
252.372391 -162.239426 519.000000
256.470947 -162.552017 520.000000
259.583008 -162.239426 519.000000
263.188354 -162.239426 519.000000
267.307739 -162.552017 520.000000
270.919983 -162.552017 520.000000
273.476379 -161.926819 518.000000
278.679413 -162.864624 521.000000
-230.386200 -158.175629 495.000000
-227.406067 -158.495163 496.000000
-224.412064 -158.814713 497.000000
-220.070389 -158.175629 495.000000
-216.194168 -157.856079 494.000000
-213.193192 -158.175629 495.000000
-209.330841 -157.856079 494.000000
-205.899200 -157.856079 494.000000
-202.467529 -157.856079 494.000000
-199.035904 -157.856079 494.000000
-195.604218 -157.856079 494.000000
-192.172577 -157.856079 494.000000
-189.123001 -158.175629 495.000000
-185.309265 -157.856079 494.000000
-181.509460 -157.536514 493.000000
-178.445953 -157.856079 494.000000
-175.368591 -158.175629 495.000000
-172.277328 -158.495163 496.000000
-168.831772 -158.495163 496.000000
-165.386246 -158.495163 496.000000
-161.614197 -158.175629 495.000000
-158.495132 -158.495163 496.000000
-155.362198 -158.814713 497.000000
-151.909683 -158.814713 497.000000
-148.158508 -158.495163 496.000000
-144.712952 -158.495163 496.000000
-141.552216 -158.814713 497.000000
-138.377594 -159.134262 498.000000
-134.918167 -159.134262 498.000000
-131.458710 -159.134262 498.000000
-127.999268 -159.134262 498.000000
-124.289757 -158.814713 497.000000
-120.837265 -158.814713 497.000000
-117.384773 -158.814713 497.000000
-114.161514 -159.134262 498.000000
-110.257484 -158.495163 496.000000
-106.811943 -158.495163 496.000000
-103.366402 -158.495163 496.000000
-99.920853 -158.495163 496.000000
-96.475288 -158.495163 496.000000
-93.217308 -158.814713 497.000000
-89.584213 -158.495163 496.000000
-86.138664 -158.495163 496.000000
-83.026566 -159.134262 498.000000
-79.567108 -159.134262 498.000000
-75.954842 -158.814713 497.000000
