38.887402 709.695801 2799.000000
43.748444 709.695801 2799.000000
48.609299 709.695801 2799.000000
53.050064 704.117615 2777.000000
57.872715 704.117615 2777.000000
63.192051 709.695801 2799.000000
67.518196 704.117615 2777.000000
72.340851 704.117615 2777.000000
77.163689 704.117615 2777.000000
81.986336 704.117615 2777.000000
86.808975 704.117615 2777.000000
90.872887 698.285889 2754.000000
95.655602 698.285889 2754.000000
100.438484 698.285889 2754.000000
105.221199 698.285889 2754.000000
110.003899 698.285889 2754.000000
113.911507 692.961304 2733.000000
118.657745 692.961304 2733.000000
123.404167 692.961304 2733.000000
128.150406 692.961304 2733.000000
132.896637 692.961304 2733.000000
137.643051 692.961304 2733.000000
142.389297 692.961304 2733.000000
147.135727 692.961304 2733.000000
151.881958 692.961304 2733.000000
156.628189 692.961304 2733.000000
163.972672 704.117615 2777.000000
168.795319 704.117615 2777.000000
174.993591 709.695801 2799.000000
152.673874 602.442749 2376.000000
155.678238 598.132324 2359.000000
159.775131 598.132324 2359.000000
163.871857 598.132324 2359.000000
167.968750 598.132324 2359.000000
172.065491 598.132324 2359.000000
174.967407 594.075500 2343.000000
179.036484 594.075500 2343.000000
183.105453 594.075500 2343.000000
187.174561 594.075500 2343.000000
191.243500 594.075500 2343.000000
195.312454 594.075500 2343.000000
198.020004 590.018616 2327.000000
202.061157 590.018616 2327.000000
206.102478 590.018616 2327.000000
210.143631 590.018616 2327.000000
214.184814 590.018616 2327.000000
218.226120 590.018616 2327.000000
222.267273 590.018616 2327.000000
227.864655 594.075500 2343.000000
231.933594 594.075500 2343.000000
236.002548 594.075500 2343.000000
241.711060 598.132324 2359.000000
245.807800 598.132324 2359.000000
251.705612 602.442749 2376.000000
255.831879 602.442749 2376.000000
261.708679 606.499573 2392.000000
265.862885 606.499573 2392.000000
270.016937 606.499573 2392.000000
274.171112 606.499573 2392.000000
278.325165 606.499573 2392.000000
284.486816 610.809998 2409.000000
288.670532 610.809998 2409.000000
292.854095 610.809998 2409.000000
297.037842 610.809998 2409.000000
301.221405 610.809998 2409.000000
305.404938 610.809998 2409.000000
309.588684 610.809998 2409.000000
313.772247 610.809998 2409.000000
317.955994 610.809998 2409.000000
324.412811 615.120361 2426.000000
328.625946 615.120361 2426.000000
332.839172 615.120361 2426.000000
337.052246 615.120361 2426.000000
343.656891 619.430786 2443.000000
347.899506 619.430786 2443.000000
354.592560 623.741211 2460.000000
358.864868 623.741211 2460.000000
363.136993 623.741211 2460.000000
367.409302 623.741211 2460.000000
371.681427 623.741211 2460.000000
378.704437 628.305176 2478.000000
383.007996 628.305176 2478.000000
387.311401 628.305176 2478.000000
391.614960 628.305176 2478.000000
398.794250 632.869141 2496.000000
403.128937 632.869141 2496.000000
407.463745 632.869141 2496.000000
411.798401 632.869141 2496.000000
419.134186 637.433105 2514.000000
423.500092 637.433105 2514.000000
427.865997 637.433105 2514.000000
435.326843 641.997070 2532.000000
439.723999 641.997070 2532.000000
444.121307 641.997070 2532.000000
448.518524 641.997070 2532.000000
456.314362 646.814575 2551.000000
460.744690 646.814575 2551.000000
465.174835 646.814575 2551.000000
469.605164 646.814575 2551.000000
474.035339 646.814575 2551.000000
478.465546 646.814575 2551.000000
486.492493 651.632080 2570.000000
490.955658 651.632080 2570.000000
495.419006 651.632080 2570.000000
499.882172 651.632080 2570.000000
504.345337 651.632080 2570.000000
508.808655 651.632080 2570.000000
517.066467 656.449585 2589.000000
521.562805 656.449585 2589.000000
526.058960 656.449585 2589.000000
534.653625 661.520630 2609.000000
539.184692 661.520630 2609.000000
543.715576 661.520630 2609.000000
552.449402 666.591736 2629.000000
557.015015 666.591736 2629.000000
561.580627 666.591736 2629.000000
570.453430 671.662781 2649.000000
575.053711 671.662781 2649.000000
579.654297 671.662781 2649.000000
584.254639 671.662781 2649.000000
588.855042 671.662781 2649.000000
593.455566 671.662781 2649.000000
602.571228 676.733887 2669.000000
611.984070 682.058472 2690.000000
616.655640 682.058472 2690.000000
626.177673 687.383057 2711.000000
630.885864 687.383057 2711.000000
635.593933 687.383057 2711.000000
640.302124 687.383057 2711.000000
645.010193 687.383057 2711.000000
649.718201 687.383057 2711.000000
654.426392 687.383057 2711.000000
659.134460 687.383057 2711.000000
663.842651 687.383057 2711.000000
668.550720 687.383057 2711.000000
673.258728 687.383057 2711.000000
683.468689 692.961304 2733.000000
688.214966 692.961304 2733.000000
698.285950 698.285889 2754.000000
703.068665 698.285889 2754.000000
707.851440 698.285889 2754.000000
718.585815 704.117615 2777.000000
723.408508 704.117615 2777.000000
728.231323 704.117615 2777.000000
733.053955 704.117615 2777.000000
743.722290 709.695801 2799.000000
748.583313 709.695801 2799.000000
753.444153 709.695801 2799.000000
758.305176 709.695801 2799.000000
763.166016 709.695801 2799.000000
774.337952 715.527527 2822.000000
785.589905 721.359253 2845.000000
803.868225 733.529785 2893.000000
815.603027 739.615112 2917.000000
820.668823 739.615112 2917.000000
825.734558 739.615112 2917.000000
830.800537 739.615112 2917.000000
835.866333 739.615112 2917.000000
834.013367 733.529785 2893.000000
839.037537 733.529785 2893.000000
844.061646 733.529785 2893.000000
849.085876 733.529785 2893.000000
854.110046 733.529785 2893.000000
859.134277 733.529785 2893.000000
864.158386 733.529785 2893.000000
869.182495 733.529785 2893.000000
874.206787 733.529785 2893.000000
879.230896 733.529785 2893.000000
884.255188 733.529785 2893.000000
889.279297 733.529785 2893.000000
894.303406 733.529785 2893.000000
899.327637 733.529785 2893.000000
911.854187 739.615112 2917.000000
916.920166 739.615112 2917.000000
914.400146 733.529785 2893.000000
919.424316 733.529785 2893.000000
924.448547 733.529785 2893.000000
937.183472 739.615112 2917.000000
934.496948 733.529785 2893.000000
939.521057 733.529785 2893.000000
944.545166 733.529785 2893.000000
949.569397 733.529785 2893.000000
954.593567 733.529785 2893.000000
959.617798 733.529785 2893.000000
964.641907 733.529785 2893.000000
969.666077 733.529785 2893.000000
974.690308 733.529785 2893.000000
979.714417 733.529785 2893.000000
984.738708 733.529785 2893.000000
989.762817 733.529785 2893.000000
994.786926 733.529785 2893.000000
999.811218 733.529785 2893.000000
1004.835327 733.529785 2893.000000
1009.859558 733.529785 2893.000000
1014.883667 733.529785 2893.000000
1011.446777 727.444519 2869.000000
1016.429382 727.444519 2869.000000
1021.411804 727.444519 2869.000000
1026.394409 727.444519 2869.000000
1031.376831 727.444519 2869.000000
1036.359253 727.444519 2869.000000
1041.341919 727.444519 2869.000000
1046.324341 727.444519 2869.000000
1051.306885 727.444519 2869.000000
1056.289307 727.444519 2869.000000
1061.271729 727.444519 2869.000000
1066.254395 727.444519 2869.000000
1062.275513 721.359253 2845.000000
1067.216553 721.359253 2845.000000
1072.157227 721.359253 2845.000000
1077.097900 721.359253 2845.000000
1082.038940 721.359253 2845.000000
1086.979614 721.359253 2845.000000
1091.920654 721.359253 2845.000000
1096.861328 721.359253 2845.000000
1101.802002 721.359253 2845.000000
1106.742920 721.359253 2845.000000
1111.683716 721.359253 2845.000000
1107.597534 715.527527 2822.000000
1112.498291 715.527527 2822.000000
1126.506104 721.359253 2845.000000
1122.300049 715.527527 2822.000000
1127.200806 715.527527 2822.000000
1132.101807 715.527527 2822.000000
1137.002686 715.527527 2822.000000
1151.210205 721.359253 2845.000000
1156.151245 721.359253 2845.000000
1161.091919 721.359253 2845.000000
1166.032837 721.359253 2845.000000
1170.973511 721.359253 2845.000000
1175.914307 721.359253 2845.000000
1180.855347 721.359253 2845.000000
1185.796021 721.359253 2845.000000
1190.736938 721.359253 2845.000000
1195.677612 721.359253 2845.000000
1200.618408 721.359253 2845.000000
1195.813110 715.527527 2822.000000
1200.713989 715.527527 2822.000000
1215.441040 721.359253 2845.000000
1220.381714 721.359253 2845.000000
1225.322510 721.359253 2845.000000
1230.263428 721.359253 2845.000000
1245.624146 727.444519 2869.000000
1250.606689 727.444519 2869.000000
1255.589233 727.444519 2869.000000
1260.571533 727.444519 2869.000000
1265.554199 727.444519 2869.000000
1270.536621 727.444519 2869.000000
1264.849121 721.359253 2845.000000
1269.789917 721.359253 2845.000000
1274.730713 721.359253 2845.000000
1258.980835 709.695801 2799.000000
1263.841797 709.695801 2799.000000
1268.702759 709.695801 2799.000000
1284.028809 715.527527 2822.000000
1288.929688 715.527527 2822.000000
1293.830566 715.527527 2822.000000
1298.731445 715.527527 2822.000000
1303.632324 715.527527 2822.000000
1308.533081 715.527527 2822.000000
1313.434082 715.527527 2822.000000
1318.334961 715.527527 2822.000000
1323.235718 715.527527 2822.000000
1328.136719 715.527527 2822.000000
1333.037476 715.527527 2822.000000
1337.938477 715.527527 2822.000000
1342.839355 715.527527 2822.000000
1336.755737 709.695801 2799.000000
1331.071655 704.117615 2777.000000
1335.894287 704.117615 2777.000000
1340.717041 704.117615 2777.000000
1345.539917 704.117615 2777.000000
1350.362549 704.117615 2777.000000
1355.185303 704.117615 2777.000000
1360.007935 704.117615 2777.000000
1364.830688 704.117615 2777.000000
1369.653442 704.117615 2777.000000
1374.476074 704.117615 2777.000000
1390.226074 709.695801 2799.000000
1395.086914 709.695801 2799.000000
1399.947754 709.695801 2799.000000
1404.808716 709.695801 2799.000000
1409.669678 709.695801 2799.000000
1426.154175 715.527527 2822.000000
1431.054932 715.527527 2822.000000
1435.955933 715.527527 2822.000000
-1400.161377 688.214905 2733.000000
-1395.415039 688.214905 2733.000000
-1390.668823 688.214905 2733.000000
-1396.571777 693.503052 2754.000000
-1391.788940 693.503052 2754.000000
-1398.589722 699.294861 2777.000000
-1404.808716 704.834778 2799.000000
-1399.947754 704.834778 2799.000000
-1395.086914 704.834778 2799.000000
-1379.298950 699.294861 2777.000000
-1374.476074 699.294861 2777.000000
-1369.653320 699.294861 2777.000000
-1353.526611 693.503052 2754.000000
-1348.744019 693.503052 2754.000000
-1355.185303 699.294861 2777.000000
-1350.362549 699.294861 2777.000000
-1337.938477 710.626587 2822.000000
-1355.239136 722.461914 2869.000000
-1328.136719 710.626587 2822.000000
-1323.235718 710.626587 2822.000000
-1318.334839 710.626587 2822.000000
-1335.308960 722.461914 2869.000000
-1330.326660 722.461914 2869.000000
-1325.344116 722.461914 2869.000000
-1320.361572 722.461914 2869.000000
-1326.382568 728.505554 2893.000000
-1321.358398 728.505554 2893.000000
-1327.254395 734.549133 2917.000000
-1322.188599 734.549133 2917.000000
-1317.122681 734.549133 2917.000000
-1312.056763 734.549133 2917.000000
-1306.990967 734.549133 2917.000000
-1301.925171 734.549133 2917.000000
-1296.859375 734.549133 2917.000000
-1291.793457 734.549133 2917.000000
-1286.727539 734.549133 2917.000000
-1281.661743 734.549133 2917.000000
-1287.536865 740.844604 2942.000000
-1282.427612 740.844604 2942.000000
-1277.318359 740.844604 2942.000000
-1283.019775 747.140015 2967.000000
-1284.534180 760.234436 3019.000000
-1279.291138 760.234436 3019.000000
-1274.048096 760.234436 3019.000000
-1280.152588 767.033508 3046.000000
-1274.862671 767.033508 3046.000000
-1269.572754 767.033508 3046.000000
-1264.282837 767.033508 3046.000000
-1258.992920 767.033508 3046.000000
-1238.132202 773.832520 3073.000000
-1232.795288 773.832520 3073.000000
-1227.458618 773.832520 3073.000000
-1222.121704 773.832520 3073.000000
-1227.871826 780.883423 3101.000000
-1222.486572 780.883423 3101.000000
-1217.101074 780.883423 3101.000000
-1222.656738 787.934265 3129.000000
-1228.114990 794.985107 3157.000000
-1211.788574 787.934265 3129.000000
-1206.354736 787.934265 3129.000000
-1200.920532 787.934265 3129.000000
-1195.486572 787.934265 3129.000000
-1200.701782 794.985107 3157.000000
-1195.218994 794.985107 3157.000000
-1189.736572 794.985107 3157.000000
-1184.253784 794.985107 3157.000000
-1189.599243 802.287842 3186.000000
-1184.066284 802.287842 3186.000000
-1178.533203 802.287842 3186.000000
-1162.323242 794.985107 3157.000000
-1156.840454 794.985107 3157.000000
-1151.357910 794.985107 3157.000000
-1135.712158 787.934265 3129.000000
-1130.278198 787.934265 3129.000000
-1124.844238 787.934265 3129.000000
-1129.427124 794.985107 3157.000000
-1123.944580 794.985107 3157.000000
-1118.461914 794.985107 3157.000000
-1112.979248 794.985107 3157.000000
-1117.670044 802.287842 3186.000000
-1112.136841 802.287842 3186.000000
-1127.443970 817.396851 3246.000000
-1121.806763 817.396851 3246.000000
-1116.169434 817.396851 3246.000000
-1121.138184 825.203125 3277.000000
-1104.895020 817.396851 3246.000000
-1099.257935 817.396851 3246.000000
-1093.620605 817.396851 3246.000000
-1077.928101 809.842346 3216.000000
-1072.343018 809.842346 3216.000000
-1066.757813 809.842346 3216.000000
-1061.172729 809.842346 3216.000000
-1055.587646 809.842346 3216.000000
-1050.002441 809.842346 3216.000000
-1054.160156 817.396851 3246.000000
-1048.522827 817.396851 3246.000000
-1042.885620 817.396851 3246.000000
-1037.248413 817.396851 3246.000000
-1031.611206 817.396851 3246.000000
-1016.491882 809.842346 3216.000000
-1010.906616 809.842346 3216.000000
-1014.699585 817.396851 3246.000000
-1009.062317 817.396851 3246.000000
-1003.425110 817.396851 3246.000000
-997.787964 817.396851 3246.000000
-992.150574 817.396851 3246.000000
-986.513489 817.396851 3246.000000
-980.876221 817.396851 3246.000000
-948.499573 794.985107 3157.000000
-943.016968 794.985107 3157.000000
-937.534180 794.985107 3157.000000
-932.051636 794.985107 3157.000000
-926.568909 794.985107 3157.000000
-921.086243 794.985107 3157.000000
-915.603699 794.985107 3157.000000
-910.120911 794.985107 3157.000000
-904.638306 794.985107 3157.000000
-899.155640 794.985107 3157.000000
-918.866760 817.396851 3246.000000
-913.229675 817.396851 3246.000000
-907.592285 817.396851 3246.000000
-901.955200 817.396851 3246.000000
-888.034058 809.842346 3216.000000
-882.448914 809.842346 3216.000000
-876.863770 809.842346 3216.000000
-871.278748 809.842346 3216.000000
-865.693604 809.842346 3216.000000
-860.108459 809.842346 3216.000000
-854.523315 809.842346 3216.000000
-841.018921 802.287842 3186.000000
-835.486023 802.287842 3186.000000
-829.953003 802.287842 3186.000000
-824.419922 802.287842 3186.000000
-818.886902 802.287842 3186.000000
-805.950439 794.985107 3157.000000
-800.467896 794.985107 3157.000000
-794.985229 794.985107 3157.000000
-789.502502 794.985107 3157.000000
-784.019836 794.985107 3157.000000
-785.688721 802.287842 3186.000000
-780.155823 802.287842 3186.000000
-774.622803 802.287842 3186.000000
-769.089722 802.287842 3186.000000
-763.556702 802.287842 3186.000000
-758.023621 802.287842 3186.000000
-752.490723 802.287842 3186.000000
-746.957703 802.287842 3186.000000
-741.424622 802.287842 3186.000000
-735.891602 802.287842 3186.000000
-737.235718 809.842346 3216.000000
-731.650757 809.842346 3216.000000
-719.292603 802.287842 3186.000000
-713.759521 802.287842 3186.000000
-708.226501 802.287842 3186.000000
-702.693420 802.287842 3186.000000
-697.160522 802.287842 3186.000000
-691.627502 802.287842 3186.000000
-686.094421 802.287842 3186.000000
-680.561401 802.287842 3186.000000
-675.028320 802.287842 3186.000000
-669.495422 802.287842 3186.000000
-657.918762 794.985107 3157.000000
-652.436096 794.985107 3157.000000
-652.896301 802.287842 3186.000000
-647.363220 802.287842 3186.000000
-641.830322 802.287842 3186.000000
-636.297302 802.287842 3186.000000
-630.764221 802.287842 3186.000000
-625.231201 802.287842 3186.000000
-625.533325 809.842346 3216.000000
-614.165222 802.287842 3186.000000
-608.632202 802.287842 3186.000000
-603.099121 802.287842 3186.000000
-597.566101 802.287842 3186.000000
-592.033020 802.287842 3186.000000
-581.161621 794.985107 3157.000000
-570.573120 787.934265 3129.000000
-565.139099 787.934265 3129.000000
-564.713562 794.985107 3157.000000
-559.230896 794.985107 3157.000000
-548.837036 787.934265 3129.000000
-543.403015 787.934265 3129.000000
-542.782959 794.985107 3157.000000
-537.300293 794.985107 3157.000000
-531.817627 794.985107 3157.000000
-526.335022 794.985107 3157.000000
-520.852356 794.985107 3157.000000
-520.103821 802.287842 3186.000000
-514.570801 802.287842 3186.000000
-509.037781 802.287842 3186.000000
-498.921753 794.985107 3157.000000
-493.439087 794.985107 3157.000000
-487.956421 794.985107 3157.000000
-482.473724 794.985107 3157.000000
-476.991058 794.985107 3157.000000
-471.508484 794.985107 3157.000000
-466.025818 794.985107 3157.000000
-460.543121 794.985107 3157.000000
-455.060455 794.985107 3157.000000
-449.577789 794.985107 3157.000000
-444.095215 794.985107 3157.000000
-438.612518 794.985107 3157.000000
-433.129852 794.985107 3157.000000
-423.854279 787.934265 3129.000000
-418.420258 787.934265 3129.000000
-412.986267 787.934265 3129.000000
-403.905243 780.883423 3101.000000
-394.921448 773.832520 3073.000000
-386.161652 767.033508 3046.000000
-380.871796 767.033508 3046.000000
-378.911163 773.832520 3073.000000
-373.574371 773.832520 3073.000000
-368.237579 773.832520 3073.000000
-362.900787 773.832520 3073.000000
-357.563965 773.832520 3073.000000
-352.227264 773.832520 3073.000000
-346.890472 773.832520 3073.000000
-332.661957 753.687256 2993.000000
-319.148926 734.549133 2917.000000
-314.083038 734.549133 2917.000000
-309.017273 734.549133 2917.000000
-101.063560 276.494659 1098.000000
-99.156693 276.494659 1098.000000
-96.984154 275.739227 1095.000000
-95.082497 275.739227 1095.000000
-93.180840 275.739227 1095.000000
-91.279182 275.739227 1095.000000
-89.051033 274.731964 1091.000000
-87.156364 274.731964 1091.000000
-85.261650 274.731964 1091.000000
-83.366936 274.731964 1091.000000
-81.472229 274.731964 1091.000000
-79.577515 274.731964 1091.000000
-77.682846 274.731964 1091.000000
-76.066002 275.739227 1095.000000
-74.164337 275.739227 1095.000000
-72.262680 275.739227 1095.000000
-70.553795 276.494659 1098.000000
-68.646965 276.494659 1098.000000
-66.983231 277.501953 1102.000000
-65.069420 277.501953 1102.000000
-63.155605 277.501953 1102.000000
-61.019497 276.494659 1098.000000
-58.951157 275.739227 1095.000000
-56.841099 274.731964 1091.000000
-54.946388 274.731964 1091.000000
-53.051678 274.731964 1091.000000
-51.156967 274.731964 1091.000000
-49.262291 274.731964 1091.000000
-47.367584 274.731964 1091.000000
-45.472874 274.731964 1091.000000
-43.578159 274.731964 1091.000000
-41.683449 274.731964 1091.000000
-39.788776 274.731964 1091.000000
-37.894066 274.731964 1091.000000
-35.999355 274.731964 1091.000000
-34.104645 274.731964 1091.000000
-32.209934 274.731964 1091.000000
-30.315260 274.731964 1091.000000
-28.420549 274.731964 1091.000000
-69.754936 722.461914 2869.000000
-65.856094 734.549133 2917.000000
-60.790222 734.549133 2917.000000
-9.801691 710.626587 2822.000000
-4.860949 704.834778 2799.000000
0.000000 704.834778 2799.000000
4.861041 704.834778 2799.000000
9.721897 704.834778 2799.000000
14.702582 710.626587 2822.000000
19.603567 710.626587 2822.000000
24.504366 710.626587 2822.000000
29.405352 710.626587 2822.000000
34.026546 704.834778 2799.000000
38.887402 704.834778 2799.000000
43.748444 704.834778 2799.000000
48.609299 704.834778 2799.000000
53.050064 699.294861 2777.000000
57.872715 699.294861 2777.000000
63.192051 704.834778 2799.000000
68.053093 704.834778 2799.000000
72.340851 699.294861 2777.000000
77.163689 699.294861 2777.000000
81.986336 699.294861 2777.000000
86.808975 699.294861 2777.000000
90.872887 693.503052 2754.000000
95.655602 693.503052 2754.000000
100.438484 693.503052 2754.000000
105.221199 693.503052 2754.000000
110.003899 693.503052 2754.000000
113.911507 688.214905 2733.000000
117.702583 682.674927 2711.000000
122.410797 682.674927 2711.000000
127.118828 682.674927 2711.000000
132.896637 688.214905 2733.000000
137.643051 688.214905 2733.000000
141.243103 682.674927 2711.000000
145.951309 682.674927 2711.000000
151.881958 688.214905 2733.000000
156.628189 688.214905 2733.000000
163.972672 699.294861 2777.000000
168.795319 699.294861 2777.000000
149.547928 602.345459 2392.000000
153.701965 602.345459 2392.000000
156.800125 598.316345 2376.000000
160.926529 598.316345 2376.000000
165.052795 598.316345 2376.000000
167.968750 594.035461 2359.000000
172.065491 594.035461 2359.000000
174.967407 590.006409 2343.000000
179.036484 590.006409 2343.000000
183.105453 590.006409 2343.000000
187.174561 590.006409 2343.000000
191.243500 590.006409 2343.000000
195.312454 590.006409 2343.000000
199.381546 590.006409 2343.000000
203.450500 590.006409 2343.000000
207.519608 590.006409 2343.000000
211.588547 590.006409 2343.000000
215.657501 590.006409 2343.000000
219.726593 590.006409 2343.000000
223.795547 590.006409 2343.000000
227.864655 590.006409 2343.000000
231.933594 590.006409 2343.000000
236.002548 590.006409 2343.000000
241.711060 594.035461 2359.000000
245.807800 594.035461 2359.000000
251.705612 598.316345 2376.000000
255.831879 598.316345 2376.000000
261.708679 602.345459 2392.000000
265.862885 602.345459 2392.000000
270.016937 602.345459 2392.000000
274.171112 602.345459 2392.000000
280.303223 606.626282 2409.000000
284.486816 606.626282 2409.000000
288.670532 606.626282 2409.000000
292.854095 606.626282 2409.000000
297.037842 606.626282 2409.000000
301.221405 606.626282 2409.000000
305.404938 606.626282 2409.000000
309.588684 606.626282 2409.000000
313.772247 606.626282 2409.000000
317.955994 606.626282 2409.000000
324.412811 610.907166 2426.000000
328.625946 610.907166 2426.000000
332.839172 610.907166 2426.000000
337.052246 610.907166 2426.000000
343.656891 615.188110 2443.000000
347.899506 615.188110 2443.000000
354.592560 619.468933 2460.000000
358.864868 619.468933 2460.000000
363.136993 619.468933 2460.000000
367.409302 619.468933 2460.000000
371.681427 619.468933 2460.000000
378.704437 624.001648 2478.000000
383.007996 624.001648 2478.000000
387.311401 624.001648 2478.000000
391.614960 624.001648 2478.000000
398.794250 628.534363 2496.000000
403.128937 628.534363 2496.000000
407.463745 628.534363 2496.000000
414.768097 633.067017 2514.000000
419.134186 633.067017 2514.000000
423.500092 633.067017 2514.000000
430.929474 637.599731 2532.000000
435.326843 637.599731 2532.000000
439.723999 637.599731 2532.000000
444.121307 637.599731 2532.000000
448.518524 637.599731 2532.000000
456.314362 642.384277 2551.000000
460.744690 642.384277 2551.000000
465.174835 642.384277 2551.000000
469.605164 642.384277 2551.000000
474.035339 642.384277 2551.000000
478.465546 642.384277 2551.000000
486.492493 647.168762 2570.000000
490.955658 647.168762 2570.000000
495.419006 647.168762 2570.000000
499.882172 647.168762 2570.000000
504.345337 647.168762 2570.000000
508.808655 647.168762 2570.000000
517.066467 651.953308 2589.000000
521.562805 651.953308 2589.000000
530.122742 656.989624 2609.000000
534.653625 656.989624 2609.000000
539.184692 656.989624 2609.000000
543.715576 656.989624 2609.000000
552.449402 662.025940 2629.000000
557.015015 662.025940 2629.000000
561.580627 662.025940 2629.000000
570.453430 667.062317 2649.000000
575.053711 667.062317 2649.000000
579.654297 667.062317 2649.000000
584.254639 667.062317 2649.000000
588.855042 667.062317 2649.000000
593.455566 667.062317 2649.000000
602.571228 672.098633 2669.000000
607.206482 672.098633 2669.000000
616.655640 677.386780 2690.000000
621.327148 677.386780 2690.000000
630.885864 682.674927 2711.000000
635.593933 682.674927 2711.000000
640.302124 682.674927 2711.000000
645.010193 682.674927 2711.000000
649.718201 682.674927 2711.000000
654.426392 682.674927 2711.000000
659.134460 682.674927 2711.000000
663.842651 682.674927 2711.000000
668.550720 682.674927 2711.000000
673.258728 682.674927 2711.000000
683.468689 688.214905 2733.000000
688.214966 688.214905 2733.000000
692.961304 688.214905 2733.000000
703.068665 693.503052 2754.000000
707.851440 693.503052 2754.000000
712.634277 693.503052 2754.000000
723.408508 699.294861 2777.000000
728.231323 699.294861 2777.000000
733.053955 699.294861 2777.000000
743.722290 704.834778 2799.000000
748.583313 704.834778 2799.000000
753.444153 704.834778 2799.000000
758.305176 704.834778 2799.000000
769.437134 710.626587 2822.000000
774.337952 710.626587 2822.000000
785.589905 716.418335 2845.000000
797.199463 722.461914 2869.000000
808.892517 728.505554 2893.000000
820.668823 734.549133 2917.000000
818.940735 728.505554 2893.000000
823.965027 728.505554 2893.000000
828.989136 728.505554 2893.000000
834.013367 728.505554 2893.000000
839.037537 728.505554 2893.000000
844.061646 728.505554 2893.000000
842.041992 722.461914 2869.000000
847.024414 722.461914 2869.000000
859.134277 728.505554 2893.000000
864.158386 728.505554 2893.000000
869.182495 728.505554 2893.000000
874.206787 728.505554 2893.000000
879.230896 728.505554 2893.000000
884.255188 728.505554 2893.000000
889.279297 728.505554 2893.000000
894.303406 728.505554 2893.000000
899.327637 728.505554 2893.000000
904.351807 728.505554 2893.000000
909.376038 728.505554 2893.000000
914.400146 728.505554 2893.000000
919.424316 728.505554 2893.000000
924.448547 728.505554 2893.000000
929.472656 728.505554 2893.000000
934.496948 728.505554 2893.000000
939.521057 728.505554 2893.000000
944.545166 728.505554 2893.000000
949.569397 728.505554 2893.000000
954.593567 728.505554 2893.000000
959.617798 728.505554 2893.000000
956.639343 722.461914 2869.000000
961.621826 722.461914 2869.000000
966.604431 722.461914 2869.000000
971.586853 722.461914 2869.000000
984.738708 728.505554 2893.000000
989.762817 728.505554 2893.000000
994.786926 728.505554 2893.000000
991.516907 722.461914 2869.000000
996.499329 722.461914 2869.000000
1001.481934 722.461914 2869.000000
1006.464294 722.461914 2869.000000
1002.985718 716.418335 2845.000000
1007.926636 716.418335 2845.000000
1012.867371 716.418335 2845.000000
1017.808350 716.418335 2845.000000
1022.749084 716.418335 2845.000000
1027.689819 716.418335 2845.000000
1032.630737 716.418335 2845.000000
1037.571533 716.418335 2845.000000
1042.512451 716.418335 2845.000000
1047.453125 716.418335 2845.000000
1052.393921 716.418335 2845.000000
1057.334839 716.418335 2845.000000
1062.275513 716.418335 2845.000000
1067.216553 716.418335 2845.000000
1063.489502 710.626587 2822.000000
1068.390381 710.626587 2822.000000
1073.291382 710.626587 2822.000000
1078.192139 710.626587 2822.000000
1083.093140 710.626587 2822.000000
1087.993896 710.626587 2822.000000
1092.894653 710.626587 2822.000000
1097.795654 710.626587 2822.000000
1102.696533 710.626587 2822.000000
1107.597534 710.626587 2822.000000
1112.498291 710.626587 2822.000000
1117.399048 710.626587 2822.000000
1122.300049 710.626587 2822.000000
1127.200806 710.626587 2822.000000
1132.101807 710.626587 2822.000000
1137.002686 710.626587 2822.000000
1141.903442 710.626587 2822.000000
1146.804443 710.626587 2822.000000
1151.705200 710.626587 2822.000000
1156.606079 710.626587 2822.000000
1161.506958 710.626587 2822.000000
1166.407837 710.626587 2822.000000
1171.308838 710.626587 2822.000000
1176.209595 710.626587 2822.000000
1181.110474 710.626587 2822.000000
1186.011353 710.626587 2822.000000
1190.912231 710.626587 2822.000000
1195.813110 710.626587 2822.000000
1200.713989 710.626587 2822.000000
1205.614868 710.626587 2822.000000
1220.381714 716.418335 2845.000000
1225.322510 716.418335 2845.000000
1230.263428 716.418335 2845.000000
1235.204102 716.418335 2845.000000
1240.145142 716.418335 2845.000000
1245.085815 716.418335 2845.000000
1250.026611 716.418335 2845.000000
1254.967529 716.418335 2845.000000
1239.537109 704.834778 2799.000000
1244.398193 704.834778 2799.000000
1249.259033 704.834778 2799.000000
1254.119873 704.834778 2799.000000
1258.980835 704.834778 2799.000000
1263.841797 704.834778 2799.000000
1268.702759 704.834778 2799.000000
1273.563721 704.834778 2799.000000
1288.929688 710.626587 2822.000000
1283.285522 704.834778 2799.000000
1288.146484 704.834778 2799.000000
1293.007446 704.834778 2799.000000
1297.868408 704.834778 2799.000000
1313.434082 710.626587 2822.000000
1318.334961 710.626587 2822.000000
1323.235718 710.626587 2822.000000
1317.312134 704.834778 2799.000000
1322.172974 704.834778 2799.000000
1327.033813 704.834778 2799.000000
1321.426270 699.294861 2777.000000
1326.248901 699.294861 2777.000000
1331.071655 699.294861 2777.000000
1324.830078 693.503052 2754.000000
1329.612793 693.503052 2754.000000
1334.395630 693.503052 2754.000000
1339.178345 693.503052 2754.000000
1343.961304 693.503052 2754.000000
1360.007935 699.294861 2777.000000
1364.830688 699.294861 2777.000000
1369.653442 699.294861 2777.000000
1374.476074 699.294861 2777.000000
1379.298950 699.294861 2777.000000
1384.121582 699.294861 2777.000000
1388.944336 699.294861 2777.000000
1404.808716 704.834778 2799.000000
1409.669678 704.834778 2799.000000
1414.530762 704.834778 2799.000000
1419.391602 704.834778 2799.000000
1424.252441 704.834778 2799.000000
-1400.161377 683.468567 2733.000000
-1395.415039 683.468567 2733.000000
-1390.668823 683.468567 2733.000000
-1385.922485 683.468567 2733.000000
-1391.788940 688.720276 2754.000000
-1398.589722 694.472107 2777.000000
-1393.766968 694.472107 2777.000000
-1399.947754 699.973877 2799.000000
-1395.086914 699.973877 2799.000000
-1390.225952 699.973877 2799.000000
-1374.476074 694.472107 2777.000000
-1369.653320 694.472107 2777.000000
-1353.526611 688.720276 2754.000000
-1348.744019 688.720276 2754.000000
-1355.185303 694.472107 2777.000000
-1350.362549 694.472107 2777.000000
-1360.221436 717.479492 2869.000000
-1355.239136 717.479492 2869.000000
-1328.136719 705.725708 2822.000000
-1323.235718 705.725708 2822.000000
-1318.334839 705.725708 2822.000000
-1335.308960 717.479492 2869.000000
-1330.326660 717.479492 2869.000000
-1325.344116 717.479492 2869.000000
-1320.361572 717.479492 2869.000000
-1326.382568 723.481384 2893.000000
-1321.358398 723.481384 2893.000000
-1316.334351 723.481384 2893.000000
-1311.310181 723.481384 2893.000000
-1317.122681 729.483337 2917.000000
-1312.056763 729.483337 2917.000000
-1306.990967 729.483337 2917.000000
-1301.925171 729.483337 2917.000000
-1296.859375 729.483337 2917.000000
-1302.864624 735.735352 2942.000000
-1308.783203 741.987305 2967.000000
-1303.630615 741.987305 2967.000000
-1287.536865 735.735352 2942.000000
-1282.427612 735.735352 2942.000000
-1277.318359 735.735352 2942.000000
-1283.019775 741.987305 2967.000000
-1277.867065 741.987305 2967.000000
-1283.867310 748.489380 2993.000000
-1278.669556 748.489380 2993.000000
-1273.471558 748.489380 2993.000000
-1279.291138 754.991455 3019.000000
-1274.048096 754.991455 3019.000000
-1280.152588 761.743591 3046.000000
-1274.862671 761.743591 3046.000000
-1269.572754 761.743591 3046.000000
-1264.282837 761.743591 3046.000000
-1270.152832 768.495789 3073.000000
-1276.340576 775.497986 3101.000000
-1270.955078 775.497986 3101.000000
-1265.569702 775.497986 3101.000000
-1248.805664 768.495789 3073.000000
-1243.468872 768.495789 3073.000000
-1238.132202 768.495789 3073.000000
-1232.795288 768.495789 3073.000000
-1227.458618 768.495789 3073.000000
-1222.121704 768.495789 3073.000000
-1227.871826 775.497986 3101.000000
-1222.486572 775.497986 3101.000000
-1217.101074 775.497986 3101.000000
-1222.656738 782.500244 3129.000000
-1228.114990 789.502502 3157.000000
-1211.788574 782.500244 3129.000000
-1206.354736 782.500244 3129.000000
-1200.920532 782.500244 3129.000000
-1195.486572 782.500244 3129.000000
-1200.701782 789.502502 3157.000000
-1195.218994 789.502502 3157.000000
-1189.736572 789.502502 3157.000000
-1195.132202 796.754822 3186.000000
-1189.599243 796.754822 3186.000000
-1173.288452 789.502502 3157.000000
-1167.805786 789.502502 3157.000000
-1162.323242 789.502502 3157.000000
-1156.840454 789.502502 3157.000000
-1141.146240 782.500244 3129.000000
-1135.712158 782.500244 3129.000000
-1130.278198 782.500244 3129.000000
-1124.844238 782.500244 3129.000000
-1129.427124 789.502502 3157.000000
-1123.944580 789.502502 3157.000000
-1118.461914 789.502502 3157.000000
-1112.979248 789.502502 3157.000000
-1107.496704 789.502502 3157.000000
-1112.136841 796.754822 3186.000000
-1127.443970 811.759583 3246.000000
-1111.438843 804.257202 3216.000000
-1105.853638 804.257202 3216.000000
-1110.532349 811.759583 3246.000000
-1104.895020 811.759583 3246.000000
-1089.098389 804.257202 3216.000000
-1083.513184 804.257202 3216.000000
-1077.928101 804.257202 3216.000000
-1072.343018 804.257202 3216.000000
-1066.757813 804.257202 3216.000000
-1061.172729 804.257202 3216.000000
-1055.587646 804.257202 3216.000000
-1050.002441 804.257202 3216.000000
-1044.417480 804.257202 3216.000000
-1038.832153 804.257202 3216.000000
-1033.247192 804.257202 3216.000000
-1027.661987 804.257202 3216.000000
-1022.076904 804.257202 3216.000000
-1016.491882 804.257202 3216.000000
-1010.906616 804.257202 3216.000000
-1014.699585 811.759583 3246.000000
-1009.062317 811.759583 3246.000000
-1003.425110 811.759583 3246.000000
-997.787964 811.759583 3246.000000
-992.150574 811.759583 3246.000000
-986.513489 811.759583 3246.000000
-971.810852 804.257202 3216.000000
-948.499573 789.502502 3157.000000
-943.016968 789.502502 3157.000000
-937.534180 789.502502 3157.000000
-932.051636 789.502502 3157.000000
-926.568909 789.502502 3157.000000
-921.086243 789.502502 3157.000000
-915.603699 789.502502 3157.000000
-910.120911 789.502502 3157.000000
-904.638306 789.502502 3157.000000
-899.155640 789.502502 3157.000000
-910.374512 804.257202 3216.000000
-904.789490 804.257202 3216.000000
-899.204224 804.257202 3216.000000
-893.619202 804.257202 3216.000000
-879.750122 796.754822 3186.000000
-874.217102 796.754822 3186.000000
-868.684021 796.754822 3186.000000
-863.151123 796.754822 3186.000000
-857.618103 796.754822 3186.000000
-852.085022 796.754822 3186.000000
-838.846436 789.502502 3157.000000
-833.363708 789.502502 3157.000000
-827.881226 789.502502 3157.000000
-822.398499 789.502502 3157.000000
-816.915771 789.502502 3157.000000
-811.433105 789.502502 3157.000000
-805.950439 789.502502 3157.000000
-800.467896 789.502502 3157.000000
-794.985229 789.502502 3157.000000
-789.502502 789.502502 3157.000000
-784.019836 789.502502 3157.000000
-778.537109 789.502502 3157.000000
-773.054626 789.502502 3157.000000
-767.571899 789.502502 3157.000000
-755.330139 782.500244 3129.000000
-749.896118 782.500244 3129.000000
-744.462036 782.500244 3129.000000
-739.028137 782.500244 3129.000000
-733.594055 782.500244 3129.000000
-728.159973 782.500244 3129.000000
-729.193298 789.502502 3157.000000
-723.710571 789.502502 3157.000000
-718.228088 789.502502 3157.000000
-712.745361 789.502502 3157.000000
-707.262634 789.502502 3157.000000
-701.780029 789.502502 3157.000000
-690.121765 782.500244 3129.000000
-684.687805 782.500244 3129.000000
-679.253723 782.500244 3129.000000
-673.819641 782.500244 3129.000000
-668.385681 782.500244 3129.000000
-662.951599 782.500244 3129.000000
-663.401489 789.502502 3157.000000
-657.918762 789.502502 3157.000000
-652.436096 789.502502 3157.000000
-646.953430 789.502502 3157.000000
-641.470703 789.502502 3157.000000
-635.988220 789.502502 3157.000000
-630.505493 789.502502 3157.000000
-630.764221 796.754822 3186.000000
-625.231201 796.754822 3186.000000
-619.698120 796.754822 3186.000000
-614.165222 796.754822 3186.000000
-608.632202 796.754822 3186.000000
-603.099121 796.754822 3186.000000
-597.566101 796.754822 3186.000000
-592.033020 796.754822 3186.000000
-576.007202 782.500244 3129.000000
-565.467346 775.497986 3101.000000
-560.081909 775.497986 3101.000000
-554.696472 775.497986 3101.000000
-549.311096 775.497986 3101.000000
-543.925781 775.497986 3101.000000
-543.403015 782.500244 3129.000000
-542.782959 789.502502 3157.000000
-537.300293 789.502502 3157.000000
-531.817627 789.502502 3157.000000
-526.335022 789.502502 3157.000000
-520.852356 789.502502 3157.000000
-515.369690 789.502502 3157.000000
-509.887024 789.502502 3157.000000
-504.404358 789.502502 3157.000000
-498.921753 789.502502 3157.000000
-489.062683 782.500244 3129.000000
-483.628662 782.500244 3129.000000
-478.194580 782.500244 3129.000000
-472.760559 782.500244 3129.000000
-467.326569 782.500244 3129.000000
-461.892548 782.500244 3129.000000
-456.458496 782.500244 3129.000000
-451.024445 782.500244 3129.000000
-445.590393 782.500244 3129.000000
-440.156433 782.500244 3129.000000
-434.722382 782.500244 3129.000000
-429.288361 782.500244 3129.000000
-423.854279 782.500244 3129.000000
-418.420258 782.500244 3129.000000
-412.986267 782.500244 3129.000000
-396.741486 761.743591 3046.000000
-391.451569 761.743591 3046.000000
-386.161652 761.743591 3046.000000
-380.871796 761.743591 3046.000000
-375.581970 761.743591 3046.000000
-370.292053 761.743591 3046.000000
-368.237579 768.495789 3073.000000
-362.900787 768.495789 3073.000000
-357.563965 768.495789 3073.000000
-352.227264 768.495789 3073.000000
-346.890472 768.495789 3073.000000
-332.661957 748.489380 2993.000000
-319.148926 729.483337 2917.000000
-314.083038 729.483337 2917.000000
-309.017273 729.483337 2917.000000
-103.345558 275.588135 1102.000000
-101.063560 274.587830 1098.000000
-99.156693 274.587830 1098.000000
-96.984154 273.837555 1095.000000
-95.082497 273.837555 1095.000000
-93.180840 273.837555 1095.000000
-91.279182 273.837555 1095.000000
-89.377525 273.837555 1095.000000
-87.156364 272.837250 1091.000000
-85.261650 272.837250 1091.000000
-83.366936 272.837250 1091.000000
-81.472229 272.837250 1091.000000
-79.577515 272.837250 1091.000000
-77.967659 273.837555 1095.000000
-76.066002 273.837555 1095.000000
-74.164337 273.837555 1095.000000
-72.460663 274.587830 1098.000000
-70.553795 274.587830 1098.000000
-68.897049 275.588135 1102.000000
-66.983231 275.588135 1102.000000
-65.069420 275.588135 1102.000000
-63.155605 275.588135 1102.000000
-61.019497 274.587830 1098.000000
-58.951157 273.837555 1095.000000
-56.841099 272.837250 1091.000000
-54.946388 272.837250 1091.000000
-53.051678 272.837250 1091.000000
-51.156967 272.837250 1091.000000
-49.262291 272.837250 1091.000000
-47.367584 272.837250 1091.000000
-45.472874 272.837250 1091.000000
-43.578159 272.837250 1091.000000
-41.683449 272.837250 1091.000000
-39.788776 272.837250 1091.000000
-37.894066 272.837250 1091.000000
-35.999355 272.837250 1091.000000
-34.104645 272.837250 1091.000000
-32.209934 272.837250 1091.000000
-30.426405 273.837555 1095.000000
-28.524750 273.837555 1095.000000
-9.801691 705.725708 2822.000000
-4.860949 699.973877 2799.000000
0.000000 699.973877 2799.000000
4.900985 705.725708 2822.000000
9.801784 705.725708 2822.000000
14.702582 705.725708 2822.000000
19.603567 705.725708 2822.000000
24.504366 705.725708 2822.000000
29.405352 705.725708 2822.000000
34.026546 699.973877 2799.000000
38.887402 699.973877 2799.000000
43.748444 699.973877 2799.000000
48.609299 699.973877 2799.000000
53.470341 699.973877 2799.000000
58.331200 699.973877 2799.000000
63.192051 699.973877 2799.000000
68.053093 699.973877 2799.000000
72.913948 699.973877 2799.000000
77.774986 699.973877 2799.000000
82.635849 699.973877 2799.000000
86.808975 694.472107 2777.000000
90.872887 688.720276 2754.000000
95.655602 688.720276 2754.000000
100.438484 688.720276 2754.000000
105.221199 688.720276 2754.000000
109.165092 683.468567 2733.000000
112.994553 677.966797 2711.000000
117.702583 677.966797 2711.000000
122.410797 677.966797 2711.000000
128.150406 683.468567 2733.000000
132.896637 683.468567 2733.000000
136.535065 677.966797 2711.000000
141.243103 677.966797 2711.000000
145.951309 677.966797 2711.000000
151.881958 683.468567 2733.000000
157.831711 688.720276 2754.000000
163.972672 694.472107 2777.000000
168.795319 694.472107 2777.000000
173.618149 694.472107 2777.000000
152.673874 594.190063 2376.000000
156.800125 594.190063 2376.000000
160.926529 594.190063 2376.000000
165.052795 594.190063 2376.000000
167.968750 589.938660 2359.000000
172.065491 589.938660 2359.000000
174.967407 585.937378 2343.000000
179.036484 585.937378 2343.000000
183.105453 585.937378 2343.000000
187.174561 585.937378 2343.000000
191.243500 585.937378 2343.000000
195.312454 585.937378 2343.000000
199.381546 585.937378 2343.000000
203.450500 585.937378 2343.000000
207.519608 585.937378 2343.000000
211.588547 585.937378 2343.000000
215.657501 585.937378 2343.000000
219.726593 585.937378 2343.000000
223.795547 585.937378 2343.000000
227.864655 585.937378 2343.000000
231.933594 585.937378 2343.000000
236.002548 585.937378 2343.000000
241.711060 589.938660 2359.000000
245.807800 589.938660 2359.000000
251.705612 594.190063 2376.000000
255.831879 594.190063 2376.000000
261.708679 598.191345 2392.000000
265.862885 598.191345 2392.000000
270.016937 598.191345 2392.000000
274.171112 598.191345 2392.000000
280.303223 602.442688 2409.000000
284.486816 602.442688 2409.000000
288.670532 602.442688 2409.000000
292.854095 602.442688 2409.000000
297.037842 602.442688 2409.000000
301.221405 602.442688 2409.000000
305.404938 602.442688 2409.000000
309.588684 602.442688 2409.000000
315.986481 606.694031 2426.000000
320.199738 606.694031 2426.000000
324.412811 606.694031 2426.000000
328.625946 606.694031 2426.000000
332.839172 606.694031 2426.000000
339.414124 610.945374 2443.000000
343.656891 610.945374 2443.000000
350.320435 615.196716 2460.000000
354.592560 615.196716 2460.000000
358.864868 615.196716 2460.000000
363.136993 615.196716 2460.000000
367.409302 615.196716 2460.000000
371.681427 615.196716 2460.000000
378.704437 619.698181 2478.000000
383.007996 619.698181 2478.000000
387.311401 619.698181 2478.000000
391.614960 619.698181 2478.000000
398.794250 624.199585 2496.000000
403.128937 624.199585 2496.000000
407.463745 624.199585 2496.000000
414.768097 628.701050 2514.000000
419.134186 628.701050 2514.000000
423.500092 628.701050 2514.000000
430.929474 633.202515 2532.000000
435.326843 633.202515 2532.000000
439.723999 633.202515 2532.000000
444.121307 633.202515 2532.000000
448.518524 633.202515 2532.000000
456.314362 637.953979 2551.000000
460.744690 637.953979 2551.000000
465.174835 637.953979 2551.000000
473.102814 642.705566 2570.000000
477.565979 642.705566 2570.000000
482.029144 642.705566 2570.000000
490.089111 647.457092 2589.000000
494.585297 647.457092 2589.000000
499.081635 647.457092 2589.000000
499.882172 642.705566 2570.000000
504.345337 642.705566 2570.000000
512.570251 647.457092 2589.000000
517.066467 647.457092 2589.000000
525.591858 652.458679 2609.000000
530.122742 652.458679 2609.000000
534.653625 652.458679 2609.000000
539.184692 652.458679 2609.000000
543.715576 652.458679 2609.000000
552.449402 657.460266 2629.000000
557.015015 657.460266 2629.000000
565.852844 662.461853 2649.000000
570.453430 662.461853 2649.000000
575.053711 662.461853 2649.000000
579.654297 662.461853 2649.000000
584.254639 662.461853 2649.000000
588.855042 662.461853 2649.000000
593.455566 662.461853 2649.000000
602.571228 667.463440 2669.000000
611.984070 672.715149 2690.000000
616.655640 672.715149 2690.000000
626.177673 677.966797 2711.000000
630.885864 677.966797 2711.000000
635.593933 677.966797 2711.000000
640.302124 677.966797 2711.000000
645.010193 677.966797 2711.000000
649.718201 677.966797 2711.000000
654.426392 677.966797 2711.000000
659.134460 677.966797 2711.000000
663.842651 677.966797 2711.000000
673.976013 683.468567 2733.000000
678.722290 683.468567 2733.000000
683.468689 683.468567 2733.000000
688.214966 683.468567 2733.000000
692.961304 683.468567 2733.000000
697.707581 683.468567 2733.000000
707.851440 688.720276 2754.000000
712.634277 688.720276 2754.000000
723.408508 694.472107 2777.000000
728.231323 694.472107 2777.000000
733.053955 694.472107 2777.000000
743.722290 699.973877 2799.000000
748.583313 699.973877 2799.000000
753.444153 699.973877 2799.000000
758.305176 699.973877 2799.000000
769.437134 705.725708 2822.000000
774.337952 705.725708 2822.000000
785.589905 711.477539 2845.000000
797.199463 717.479492 2869.000000
808.892517 723.481384 2893.000000
813.916626 723.481384 2893.000000
818.940735 723.481384 2893.000000
817.129517 717.479492 2869.000000
822.111938 717.479492 2869.000000
827.094543 717.479492 2869.000000
832.076965 717.479492 2869.000000
837.059387 717.479492 2869.000000
842.041992 717.479492 2869.000000
847.024414 717.479492 2869.000000
852.007019 717.479492 2869.000000
856.989441 717.479492 2869.000000
861.971924 717.479492 2869.000000
866.954529 717.479492 2869.000000
871.936890 717.479492 2869.000000
876.919495 717.479492 2869.000000
881.901917 717.479492 2869.000000
886.884399 717.479492 2869.000000
899.327637 723.481384 2893.000000
904.351807 723.481384 2893.000000
909.376038 723.481384 2893.000000
914.400146 723.481384 2893.000000
919.424316 723.481384 2893.000000
924.448547 723.481384 2893.000000
921.761841 717.479492 2869.000000
926.744446 717.479492 2869.000000
931.726868 717.479492 2869.000000
928.873474 711.477539 2845.000000
933.814392 711.477539 2845.000000
946.674377 717.479492 2869.000000
951.656982 717.479492 2869.000000
948.636841 711.477539 2845.000000
953.577515 711.477539 2845.000000
958.518494 711.477539 2845.000000
963.459229 711.477539 2845.000000
968.400208 711.477539 2845.000000
973.340942 711.477539 2845.000000
978.281616 711.477539 2845.000000
983.222595 711.477539 2845.000000
988.163330 711.477539 2845.000000
993.104248 711.477539 2845.000000
998.045044 711.477539 2845.000000
994.877197 705.725708 2822.000000
999.778198 705.725708 2822.000000
1004.679016 705.725708 2822.000000
1009.580017 705.725708 2822.000000
1014.480774 705.725708 2822.000000
1027.689819 711.477539 2845.000000
1032.630737 711.477539 2845.000000
1037.571533 711.477539 2845.000000
1034.084351 705.725708 2822.000000
1038.985107 705.725708 2822.000000
1043.885986 705.725708 2822.000000
1057.334839 711.477539 2845.000000
1053.687744 705.725708 2822.000000
1058.588745 705.725708 2822.000000
1063.489502 705.725708 2822.000000
1068.390381 705.725708 2822.000000
1073.291382 705.725708 2822.000000
1078.192139 705.725708 2822.000000
1083.093140 705.725708 2822.000000
1087.993896 705.725708 2822.000000
1092.894653 705.725708 2822.000000
1097.795654 705.725708 2822.000000
1102.696533 705.725708 2822.000000
1107.597534 705.725708 2822.000000
1112.498291 705.725708 2822.000000
1108.291992 699.973877 2799.000000
1113.153076 699.973877 2799.000000
1118.013916 699.973877 2799.000000
1122.874878 699.973877 2799.000000
1127.735718 699.973877 2799.000000
1132.596680 699.973877 2799.000000
1137.457642 699.973877 2799.000000
1142.318481 699.973877 2799.000000
1156.606079 705.725708 2822.000000
1161.506958 705.725708 2822.000000
1166.407837 705.725708 2822.000000
1161.762329 699.973877 2799.000000
1166.623169 699.973877 2799.000000
1171.484253 699.973877 2799.000000
1176.345093 699.973877 2799.000000
1181.205933 699.973877 2799.000000
1186.066895 699.973877 2799.000000
1190.927856 699.973877 2799.000000
1205.614868 705.725708 2822.000000
1210.515625 705.725708 2822.000000
1215.416626 705.725708 2822.000000
1220.317505 705.725708 2822.000000
1225.218262 705.725708 2822.000000
1230.119263 705.725708 2822.000000
1224.954468 699.973877 2799.000000
1220.149048 694.472107 2777.000000
1224.971802 694.472107 2777.000000
1229.794434 694.472107 2777.000000
1234.617188 694.472107 2777.000000
1239.439819 694.472107 2777.000000
1244.262573 694.472107 2777.000000
1249.085449 694.472107 2777.000000
1253.908081 694.472107 2777.000000
1258.730835 694.472107 2777.000000
1263.553467 694.472107 2777.000000
1278.424438 699.973877 2799.000000
1283.285522 699.973877 2799.000000
1288.146484 699.973877 2799.000000
1293.007446 699.973877 2799.000000
1297.868408 699.973877 2799.000000
1302.729126 699.973877 2799.000000
1307.590210 699.973877 2799.000000
